-1.44069 0.333904 -0.374551 -0.0571273 -0.993458 0.0601702
-1.45791 0.332358 -0.398534 -0.0790858 -0.991136 0.0601632
-1.49371 0.342904 -0.231245 -0.0622304 -0.994451 0.0600857
-1.43936 0.346083 -0.17139 -0.0185241 -0.997443 0.0577863
-1.45851 0.343902 -0.212449 -0.0391621 -0.995943 0.0596671
-1.48518 0.34378 -0.214751 -0.0535065 -0.995079 0.0593442
-1.48376 0.348146 -0.132607 -0.0312227 -0.996957 0.0549638
-1.46606 0.345902 -0.174819 -0.0331786 -0.996553 0.0575233
-1.4645 0.343559 -0.2189 -0.0439404 -0.995616 0.0599128
-1.48196 0.34769 -0.141192 -0.0325462 -0.99682 0.0554543
-1.47699 0.342253 -0.243474 -0.0568237 -0.994687 0.0610212
-1.47104 0.345341 -0.185373 -0.0385146 -0.996166 0.0580057
-1.40381 0.344217 -0.206484 -0.0094152 -0.997742 0.0602628
-1.49093 0.343428 -0.22137 -0.0582069 -0.994756 0.0596028
-1.40117 0.34268 -0.235404 -0.0156439 -0.997177 0.0618576
-1.48975 0.342806 -0.233084 -0.0606729 -0.994531 0.0602506
-1.4501 0.344062 -0.209426 -0.0340359 -0.996267 0.0596459
-1.49075 0.342172 -0.245006 -0.0643135 -0.994234 0.0608731
-1.38833 0.34296 -0.230125 -0.00764386 -0.997686 0.0617894
-1.43889 0.343245 -0.224796 -0.0322917 -0.996265 0.0606576
-1.41975 0.344043 -0.209762 -0.0184889 -0.997183 0.0601718
-1.44419 0.352178 -0.0567293 -0.0309903 -0.805577 0.0604308
-1.43177 0.352004 -0.0599964 -0.0272749 -0.820156 0.0598818
-1.4547 0.354971 -0.00418155 -0.0487012 -0.57346 0.0693669
-1.4923 0.356722 0.0287354 -0.0666861 -0.42767 0.0749473
-1.44339 0.350733 -0.0839155 -0.0228559 -0.925607 0.055805
-1.49836 0.351313 -0.0730316 -0.0382501 -0.876871 0.0576263
-1.40579 0.350546 -0.0874033 -0.0134841 -0.941474 0.0552326
-1.47666 0.354916 -0.00524358 -0.0532677 -0.577874 0.0691739
-1.46802 0.351481 -0.0698632 -0.0324372 -0.863262 0.0581825
-1.49223 0.355354 0.00300381 -0.0591396 -0.54127 0.0705686
-1.46181 0.351671 -0.0662679 -0.0321112 -0.847468 0.0587978
-1.44576 0.354697 -0.00934269 -0.0452068 -0.596357 0.0684937
-1.49139 0.353904 -0.0242889 -0.0509647 -0.661771 0.0659247
-1.53437 0.355309 -0.0237408 -0.0638525 -0.423414 0.0429321
-1.55048 0.356124 -0.045947 -0.0980483 -0.00730754 0.0505044
-1.54049 0.357342 0.0278372 -0.0564822 -0.434499 0.0329796
-1.56519 0.355893 -0.100226 -0.140808 0.468476 0.0646873
-1.53526 0.357002 0.0324319 -0.0462693 -0.562196 0.0310803
-1.54433 0.354062 -0.0984595 -0.105687 0.00576664 0.0606515
-1.52204 0.353938 -0.0327758 -0.0465278 -0.668303 0.0427029
-1.53252 0.356423 0.0208444 -0.0456769 -0.589515 0.033078
-1.56331 0.357054 -0.0538734 -0.121974 0.296606 0.054449
-1.57249 0.357225 -0.0767751 -0.144937 0.562616 0.0609548
-1.50379 0.350796 -0.0848365 -0.0339842 -0.922069 0.0506312
-1.51855 0.351891 -0.0930886 -0.061214 -0.574887 0.054984
-1.56221 0.357378 -0.0391315 -0.115144 0.230815 0.051104
-1.59829 0.355914 -0.239187 -0.249501 0.708876 0.053736
-1.56249 0.353074 -0.154099 -0.151631 0.379955 0.0655722
-1.53909 0.348226 -0.219252 -0.132893 -0.211587 0.0609973
-1.5865 0.355953 -0.171877 -0.202568 0.723169 0.0616384
-1.57243 0.352068 -0.250163 -0.205935 0.245413 0.0549014
-1.53648 0.347533 -0.232679 -0.133115 -0.296737 0.0598589
-1.53029 0.346286 -0.248484 -0.127629 -0.448705 0.0587942
-1.55799 0.351319 -0.199865 -0.160488 0.162669 0.0613036
-1.56912 0.351589 -0.251038 -0.200169 0.187818 0.0551041
-1.58112 0.354869 -0.185586 -0.197778 0.591073 0.0607163
-1.58901 0.354518 -0.2438 -0.234131 0.540562 0.0540849
-1.55088 0.34904 -0.252182 -0.166972 -0.118479 0.0565986
-1.54973 0.349605 -0.222944 -0.153899 -0.0464323 0.0596808
-1.5879 0.357363 -0.122761 -0.186747 0.899498 0.0665219
-1.52719 0.346617 -0.217821 -0.110423 -0.404602 0.0621941
-1.53013 0.346444 -0.241205 -0.124601 -0.428724 0.0595507
-1.5754 0.352924 -0.232182 -0.204679 0.350795 0.0564719
-1.5632 0.346205 -0.353558 -0.225639 0.0826132 0.0480774
-1.58371 0.350813 -0.370759 -0.276745 0.414978 0.0361303
-1.59818 0.354066 -0.391159 -0.316788 0.648268 0.0257982
-1.60729 0.356096 -0.275485 -0.280071 0.81428 0.048877
-1.6084 0.356362 -0.395694 -0.340307 0.814464 0.0207744
-1.60799 0.356266 -0.365766 -0.325033 0.812245 0.0278228
-1.57816 0.349571 -0.404968 -0.281638 0.319216 0.0304179
-1.57569 0.349011 -0.360354 -0.254995 0.285608 0.0416477
-1.61554 0.357959 -0.356789 -0.336455 0.936765 0.0269515
-1.54834 0.342874 -0.405953 -0.219864 -0.167847 0.0418037
-1.60978 0.356655 -0.268568 -0.281936 0.855964 0.0494998
-1.56722 0.347112 -0.399719 -0.25626 0.141267 0.0358887
-1.60964 0.356636 -0.367497 -0.329303 0.838862 0.0267834
-1.60524 0.355639 -0.303366 -0.289213 0.776551 0.0432598
-1.57044 0.347829 -0.339598 -0.234029 0.202936 0.0484709
-1.58702 0.351502 -0.469557 -0.333337 0.547456 -0.0332984
-1.59802 0.355146 -0.473676 -0.35535 0.759522 -0.043525
-1.57201 0.346293 -0.458766 -0.301228 0.244745 -0.0135897
-1.59061 0.353769 -0.494793 -0.350028 0.677677 -0.0632033
-1.60444 0.355178 -0.42966 -0.349724 0.764724 0.00212772
-1.54016 0.338207 -0.501487 -0.259241 -0.229675 -0.0447495
-1.54617 0.340077 -0.501073 -0.270204 -0.120661 -0.0473732
-1.60731 0.357053 -0.451223 -0.363619 0.872362 -0.0233242
-1.60345 0.355802 -0.450417 -0.35614 0.799491 -0.0204433
-1.57896 0.353293 -0.527804 -0.300921 0.616159 -0.254657
-1.56841 0.352125 -0.54503 -0.243142 0.525221 -0.386575
-1.58987 0.356643 -0.529167 -0.311186 0.818129 -0.235206
-1.52674 0.36743 -0.553284 -0.10482 0.660168 -0.515754
-1.564 0.370043 -0.527765 -0.258471 0.908883 -0.235647
-1.58855 0.360421 -0.528091 -0.30751 0.902006 -0.220466
-1.60665 0.359345 -0.454166 -0.36571 0.926497 -0.0272495
-1.57606 0.3745 -0.422579 -0.320251 0.935611 0.0125807
-1.56469 0.378475 -0.437644 -0.311417 0.936248 -0.00121914
-1.53723 0.390096 -0.441311 -0.280244 0.941144 0.000365222
-1.57944 0.369396 -0.481431 -0.341936 0.928922 -0.0508982
-1.58343 0.36985 -0.446299 -0.336056 0.931761 -0.0142074
-1.59631 0.362004 -0.483245 -0.36231 0.925498 -0.056211
-1.55889 0.379197 -0.466367 -0.313247 0.934414 -0.0307085
-1.55846 0.381564 -0.431172 -0.302145 0.938109 0.00693549
-1.54806 0.385848 -0.434428 -0.290906 0.93977 0.00554189
-1.58489 0.369058 -0.448912 -0.338558 0.931213 -0.0172886
-1.57408 0.375356 -0.42259 -0.317923 0.935991 0.0129661
-1.60944 0.360018 -0.276752 -0.295242 0.950543 0.0479372
-1.59995 0.363129 -0.303098 -0.30348 0.9461 0.0458531
-1.57542 0.37119 -0.254519 -0.268667 0.953151 0.0673251
-1.57475 0.371405 -0.274622 -0.278023 0.94994 0.0629762
-1.56729 0.373843 -0.322481 -0.297555 0.942136 0.0550868
-1.60324 0.362034 -0.375223 -0.3397 0.934733 0.0278687
-1.50863 0.393114 -0.25984 -0.240041 0.950495 0.0941147
-1.59305 0.365393 -0.298059 -0.297838 0.946714 0.0499051
-1.56028 0.376147 -0.308926 -0.287763 0.944099 0.0611478
-1.61133 0.359372 -0.404237 -0.357429 0.930344 0.0177956
-1.59784 0.363818 -0.313236 -0.307371 0.944433 0.0444029
-1.56428 0.374844 -0.267247 -0.269587 0.950828 0.0690668
-1.6074 0.360663 -0.392747 -0.350071 0.932063 0.0220875
-1.58025 0.3696 -0.270086 -0.278411 0.95081 0.0617127
-1.59722 0.364025 -0.293561 -0.297621 0.947541 0.0491921
-1.57534 0.371199 -0.33209 -0.305934 0.940828 0.0494981
-1.5493 0.368451 -0.141786 -0.2015 0.966338 0.0925217
-1.58577 0.360472 -0.147877 -0.211002 0.968562 0.0699947
-1.57 0.362866 -0.119133 -0.189176 0.971747 0.0799249
-1.5703 0.362304 -0.106864 -0.180894 0.973721 0.079833
-1.5595 0.366651 -0.154161 -0.211399 0.965265 0.0861434
-1.519 0.373759 -0.10407 -0.171449 0.969676 0.11147
-1.57183 0.362215 -0.113257 -0.185459 0.972841 0.0788377
-1.53645 0.370815 -0.128576 -0.190645 0.967311 0.10054
-1.59846 0.359925 -0.205158 -0.251739 0.960576 0.0617538
-1.527 0.371839 -0.101221 -0.170693 0.970829 0.106559
-1.52514 0.373112 -0.122332 -0.184744 0.967313 0.107553
-1.55125 0.367655 -0.133004 -0.195829 0.967904 0.0913789
-1.54715 0.357976 -0.028175 -0.128985 0.35555 0.0719509
-1.57347 0.357976 -0.0588636 -0.144315 0.577464 0.0596361
-1.52392 0.357976 0.0449751 -0.0655949 -0.361861 0.0521683
-1.53551 0.357976 0.0165393 -0.0884974 -0.0951874 0.0566755
-1.54967 0.357976 0.00180312 -0.0948212 0.00408806 0.0488628
-1.53955 0.357976 0.0263138 -0.0751635 -0.225189 0.0451305
-1.52861 0.357976 0.0236296 -0.0855087 -0.142575 0.0605333
-0.441921 0.358064 -0.106815 -0.231894 0.0301898 -2.08184e-05
-0.86159 -0.293002 0.0644807 -3.3051e-05 -0.925996 0.0559471
-1.24676 -0.290578 0.109857 -3.41538e-05 -0.875974 0.0579248
-0.463835 -0.295806 0.0119539 -3.17713e-05 -0.983869 0.053659
-1.26649 -0.293266 0.0592755 -3.28962e-05 -0.931441 0.0557316
-0.885165 -0.295912 0.00971895 -3.16893e-05 -0.986045 0.0535728
-0.667084 -0.294312 0.0399409 -3.24537e-05 -0.953039 0.0548779
-1.03141 -0.296124 0.0056419 -3.15788e-05 -0.990422 0.0533997
-0.134548 -0.295918 0.0100534 -3.17448e-05 -0.986168 0.0535682
-0.825425 -0.296281 0.00280559 -3.15213e-05 -0.993667 0.0532714
-0.817221 -0.293081 0.0630179 -3.30174e-05 -0.927629 0.0558826
-1.25477 -0.295543 0.0164391 -3.18329e-05 -0.978433 0.0538736
-1.34897 -0.293467 0.0554414 -3.27958e-05 -0.935593 0.0555674
-0.603434 -0.294604 0.0344916 -3.23223e-05 -0.959057 0.05464
-0.663406 -0.29329 0.059174 -3.29316e-05 -0.931946 0.0557119
-1.17001 -0.291439 0.0936914 -3.37571e-05 -0.893755 0.0572218
-0.646887 -0.29433 0.0396095 -3.24467e-05 -0.953416 0.054863
-0.83084 -0.292957 0.0653394 -3.30742e-05 -0.925074 0.0559836
-1.31056 -0.290298 0.115075 -3.42794e-05 -0.870209 0.0581527
-1.03731 -0.293626 0.0526278 -3.27455e-05 -0.938882 0.0554375
-1.00167 -0.295287 0.0214081 -3.19723e-05 -0.973148 0.0540827
-0.790073 -0.296426 8.98992e-05 -3.14561e-05 -0.996669 0.0531528
-0.246029 -0.295747 0.0131901 -3.18157e-05 -0.982655 0.0537071
-1.08791 -0.293454 0.0558328 -3.28219e-05 -0.935334 0.0555778
-0.369604 -0.295395 0.0197409 -3.19707e-05 -0.975389 0.0539943
-0.828986 -0.293341 0.0581095 -3.28948e-05 -0.933005 0.05567
-1.12217 -0.293615 0.0527786 -3.27439e-05 -0.938661 0.0554462
-1.12897 -0.295796 0.0117568 -3.17245e-05 -0.983651 0.0536673
-0.777908 -0.29587 0.0105751 -3.17173e-05 -0.985176 0.0536072
-1.07551 -0.291086 0.100397 -3.39296e-05 -0.886461 0.0575102
-0.763918 -0.294889 0.0290341 -3.21767e-05 -0.964939 0.0544074
-0.922956 -0.293881 0.0479056 -3.26354e-05 -0.944136 0.0552298
-0.659795 -0.294084 0.0442374 -3.25609e-05 -0.948331 0.0550641
-1.16198 -0.29108 0.100458 -3.39257e-05 -0.886339 0.057515
-1.15167 -0.293855 0.0482618 -3.26298e-05 -0.943596 0.0552511
-1.01949 -0.291836 0.0863088 -3.35832e-05 -0.901951 0.0568978
-0.949958 -0.292617 0.0716593 -3.32237e-05 -0.918064 0.0562607
-0.636545 -0.296519 -0.00156977 -3.14245e-05 -0.998589 0.0530769
-1.07954 -0.29605 0.0069931 -3.16093e-05 -0.988908 0.0534595
-1.13792 -0.292158 0.080182 -3.34236e-05 -0.908594 0.0566351
-1.10369 -0.291279 0.0967473 -3.38372e-05 -0.890447 0.0573526
-0.869033 -0.295619 0.0152331 -3.18272e-05 -0.980008 0.0538115
-0.741103 -0.294355 0.0390998 -3.24281e-05 -0.953913 0.0548433
-1.21561 -0.289742 0.125599 -3.45468e-05 -0.858728 0.0586067
-0.402053 -0.295542 0.0169596 -3.18995e-05 -0.978419 0.0538745
-0.999661 -0.290844 0.104986 -3.40484e-05 -0.881478 0.0577073
-1.22848 -0.290458 0.112126 -3.42113e-05 -0.873497 0.0580228
-1.26444 -0.296226 0.00358159 -3.15129e-05 -0.99253 0.0533162
-1.1474 -0.292906 0.0661064 -3.30734e-05 -0.924026 0.0560249
-0.875587 -0.294096 0.0438798 -3.25384e-05 -0.948583 0.055054
-1.06442 -0.294003 0.0455244 -3.25673e-05 -0.946656 0.0551301
-1.07449 -0.294559 0.035051 -3.23066e-05 -0.958137 0.0546762
-0.372924 -0.295372 0.0201773 -3.19813e-05 -0.974908 0.0540133
-1.2581 -0.291021 0.101505 -3.39456e-05 -0.885128 0.0575629
-0.958469 -0.291544 0.0918427 -3.37245e-05 -0.895921 0.0571362
-1.00018 -0.294898 0.0287191 -3.2154e-05 -0.96513 0.0543997
-1.20382 -0.295546 0.0164108 -3.18354e-05 -0.978498 0.0538711
-1.17725 -0.290609 0.109305 -3.41445e-05 -0.876625 0.0578991
-1.15957 -0.295846 0.0107901 -3.16986e-05 -0.984691 0.0536262
-1.32742 -0.289983 0.120995 -3.44254e-05 -0.863705 0.0584099
-0.80384 -0.295869 0.0105703 -3.17155e-05 -0.985165 0.0536076
-0.592735 -0.293247 0.0600328 -3.29574e-05 -0.93105 0.0557474
-1.26378 -0.291913 0.0847229 -3.35284e-05 -0.903531 0.0568352
-0.765423 -0.295063 0.0257591 -3.20952e-05 -0.96853 0.0542654
-1.24514 -0.29613 0.00540113 -3.15593e-05 -0.990546 0.0533946
-0.686463 -0.293879 0.0480718 -3.26544e-05 -0.944108 0.055231
-1.35281 -0.290299 0.11504 -3.42759e-05 -0.870219 0.0581523
-0.507859 -0.296039 0.00755571 -3.16593e-05 -0.988664 0.0534694
-1.20026 -0.295219 0.0225712 -3.19887e-05 -0.971743 0.0541381
-0.970228 -0.291119 0.0998314 -3.39222e-05 -0.887151 0.057483
-1.01978 -0.296463 -0.00072742 -3.14213e-05 -0.997415 0.0531231
-0.405423 -0.296433 0.000189969 -3.14828e-05 -0.99681 0.0531473
-0.941842 -0.292634 0.0713587 -3.32168e-05 -0.918399 0.0562474
-1.22027 -0.292716 0.0696325 -3.31564e-05 -0.920111 0.0561796
-0.872509 -0.29544 0.018597 -3.19106e-05 -0.976316 0.0539575
-0.484661 -0.294399 0.0384095 -3.24271e-05 -0.954838 0.0548069
-0.861869 -0.29487 0.0293362 -3.2178e-05 -0.964544 0.054423
-0.596034 -0.295501 0.017614 -3.19036e-05 -0.977574 0.0539078
-0.320269 -0.295675 0.0145043 -3.18437e-05 -0.981165 0.053766
-1.10953 -0.290611 0.109314 -3.4149e-05 -0.876659 0.0578978
-0.858256 -0.291656 0.0897907 -3.36799e-05 -0.898237 0.0570447
-1.13224 -0.292215 0.0791126 -3.33974e-05 -0.90977 0.0565885
-0.708898 -0.29647 -0.000678017 -3.14421e-05 -0.997564 0.0531174
-1.04511 -0.294789 0.0307532 -3.22017e-05 -0.96287 0.054489
-0.990599 -0.293279 0.0591849 -3.29113e-05 -0.93172 0.0557207
-1.13038 -0.296111 0.00582883 -3.15772e-05 -0.990152 0.0534103
-1.05767 -0.292108 0.0811847 -3.34535e-05 -0.907546 0.0566765
-0.943917 -0.291447 0.0936832 -3.37712e-05 -0.893912 0.0572157
-1.06654 -0.292401 0.0756516 -3.33155e-05 -0.913609 0.0564368
-0.831426 -0.293804 0.0494005 -3.26783e-05 -0.942556 0.0552923
-0.798107 -0.295123 0.0245982 -3.20643e-05 -0.969782 0.0542159
-0.348292 -0.295351 0.0205911 -3.19931e-05 -0.97447 0.0540307
-1.10237 -0.293779 0.0497094 -3.26689e-05 -0.94204 0.0553126
-0.807595 -0.292769 0.0688817 -3.31637e-05 -0.921204 0.0561366
-1.31321 -0.289288 0.134071 -3.47511e-05 -0.849372 0.0589766
-1.23856 -0.289418 0.13167 -3.46962e-05 -0.852054 0.0588706
-1.03702 -0.291493 0.0927559 -3.37423e-05 -0.894868 0.0571778
-0.256849 -0.295025 0.0267731 -3.21524e-05 -0.967749 0.0542965
-1.21468 -0.290372 0.11374 -3.42523e-05 -0.871736 0.0580924
-1.35316 -0.290563 0.110076 -3.41526e-05 -0.875665 0.057937
-1.32933 -0.292579 0.0721539 -3.32121e-05 -0.917275 0.0562918
-0.726083 -0.294377 0.038691 -3.24189e-05 -0.954371 0.0548252
-1.28368 -0.292201 0.0792978 -3.33924e-05 -0.909469 0.0566004
-1.17269 -0.289754 0.125397 -3.45445e-05 -0.858978 0.0585969
-1.17152 -0.291874 0.0855187 -3.3554e-05 -0.902718 0.0568674
-1.13259 -0.291523 0.0921345 -3.37208e-05 -0.895487 0.0571533
-0.723227 -0.294965 0.0276263 -3.21443e-05 -0.966509 0.0543453
-0.162328 -0.29589 0.0105488 -3.17554e-05 -0.985607 0.0535904
-0.870328 -0.2939 0.0475678 -3.26303e-05 -0.944541 0.0552138
-0.938546 -0.29481 0.0304064 -3.21998e-05 -0.96332 0.0544713
-1.19433 -0.289773 0.12502 -3.45338e-05 -0.859377 0.0585811
-1.07442 -0.291031 0.101437 -3.39555e-05 -0.885322 0.0575553
-1.17434 -0.293572 0.0535612 -3.27601e-05 -0.937769 0.0554815
-0.800538 -0.294347 0.0391964 -3.24268e-05 -0.953768 0.054849
-1.29736 -0.292994 0.0643738 -3.30209e-05 -0.925829 0.0559535
-0.876837 -0.295558 0.0163698 -3.1855e-05 -0.978756 0.053861
-0.522331 -0.29407 0.0445845 -3.25781e-05 -0.94804 0.0550756
-1.2918 -0.295478 0.0176432 -3.18605e-05 -0.977088 0.0539267
-0.755402 -0.294142 0.0430928 -3.25264e-05 -0.949524 0.0550169
-1.11043 -0.293804 0.0492456 -3.26569e-05 -0.942544 0.0552927
-1.3182 -0.294928 0.0279688 -3.21153e-05 -0.965746 0.0543752
-1.09449 -0.290467 0.11203 -3.42174e-05 -0.87369 0.0580152
-0.176337 -0.2961 0.00659062 -3.16562e-05 -0.989939 0.0534191
-0.217256 -0.295268 0.0222288 -3.2042e-05 -0.97276 0.0540984
-0.761435 -0.29277 0.0689013 -3.31671e-05 -0.921212 0.0561363
-0.421475 -0.294943 0.0282162 -3.21779e-05 -0.966059 0.0543632
-0.589732 -0.296224 0.0040249 -3.15664e-05 -0.992483 0.0533183
-1.25289 -0.292329 0.076896 -3.33347e-05 -0.912123 0.0564955
-0.174206 -0.296476 -0.000485211 -3.14806e-05 -0.997701 0.0531122
-0.897959 -0.291625 0.0903622 -3.36916e-05 -0.897584 0.0570705
-1.19419 -0.29344 0.0560442 -3.28205e-05 -0.935032 0.0555897
-1.0628 -0.29637 0.000983356 -3.14611e-05 -0.995511 0.0531984
-1.08431 -0.296102 0.00602497 -3.1585e-05 -0.989967 0.0534176
-0.926489 -0.294285 0.0402912 -3.2446e-05 -0.952486 0.0548997
-1.15815 -0.2899 0.122653 -3.44772e-05 -0.861997 0.0584775
-0.533691 -0.303297 -0.129025 -3.55973e-05 -0.99818 0.0600525
-0.758186 -0.303817 -0.138946 -3.62378e-05 -0.998114 0.0611755
-0.850235 -0.301576 -0.0968217 -3.46393e-05 -0.998272 0.0584968
-1.00891 -0.303847 -0.139653 -3.65352e-05 -0.998082 0.0617246
-0.830956 -0.304509 -0.151992 -3.68415e-05 -0.998053 0.0622074
-0.962274 -0.301149 -0.0888661 -3.4439e-05 -0.99829 0.0581801
-1.3368 -0.301779 -0.100945 -3.53274e-05 -0.998198 0.0597496
-1.35102 -0.29692 -0.0095361 -3.16597e-05 -0.998562 0.0535662
-1.10088 -0.300748 -0.0813931 -3.42865e-05 -0.998304 0.0579493
-1.04573 -0.300315 -0.0732203 -3.38981e-05 -0.998343 0.0572837
-1.30464 -0.304419 -0.150585 -3.72929e-05 -0.998003 0.0630586
-0.32183 -0.302977 -0.122873 -3.51222e-05 -0.99823 0.059211
-1.24622 -0.30283 -0.120652 -3.60242e-05 -0.99813 0.0609077
-0.732111 -0.300602 -0.0784319 -3.37717e-05 -0.998359 0.057011
-0.773478 -0.302487 -0.113918 -3.52458e-05 -0.998212 0.0595052
-1.31484 -0.304018 -0.143042 -3.69999e-05 -0.998032 0.0625664
-0.746471 -0.302133 -0.10725 -3.49482e-05 -0.998242 0.0589981
-1.17796 -0.303713 -0.137236 -3.66192e-05 -0.998072 0.0618983
-0.730864 -0.302278 -0.109968 -3.5041e-05 -0.998233 0.0591516
-0.385116 -0.30408 -0.143668 -3.60279e-05 -0.998139 0.0607506
-1.31928 -0.298668 -0.042405 -3.295e-05 -0.998434 0.0557364
-0.539981 -0.303437 -0.131654 -3.57099e-05 -0.998169 0.0602437
-0.254392 -0.30343 -0.13136 -3.53918e-05 -0.998204 0.0596529
-1.04062 -0.302001 -0.104942 -3.51707e-05 -0.998217 0.0594292
-1.04785 -0.302069 -0.106216 -3.52298e-05 -0.998211 0.0595302
-1.02676 -0.299115 -0.0506276 -3.29675e-05 -0.998436 0.0557105
-0.774228 -0.302615 -0.116332 -3.53439e-05 -0.998203 0.0596708
-0.673248 -0.302791 -0.11958 -3.53664e-05 -0.998201 0.0596896
-1.36177 -0.297359 -0.0178011 -3.20042e-05 -0.998527 0.0541494
-1.01845 -0.301892 -0.10287 -3.50635e-05 -0.998228 0.0592441
-1.08136 -0.303106 -0.125753 -3.60529e-05 -0.998129 0.0609248
-1.20698 -0.297798 -0.0259576 -3.21668e-05 -0.998513 0.0543943
-0.348652 -0.303552 -0.133713 -3.55877e-05 -0.998183 0.0600012
-0.90084 -0.303598 -0.13491 -3.62282e-05 -0.998113 0.0611863
-0.719424 -0.302976 -0.123095 -3.55576e-05 -0.998182 0.0600208
-1.07952 -0.304309 -0.148391 -3.6963e-05 -0.998039 0.0624596
-1.30416 -0.301707 -0.0995712 -3.5237e-05 -0.998207 0.059591
-1.36025 -0.30007 -0.0688057 -3.40576e-05 -0.998324 0.0576124
-0.912781 -0.300251 -0.0719419 -3.3704e-05 -0.998364 0.0569311
-1.02534 -0.299685 -0.0613542 -3.33981e-05 -0.998393 0.0564366
-1.15272 -0.30329 -0.129257 -3.62706e-05 -0.998106 0.0613056
-0.292166 -0.304038 -0.142814 -3.58938e-05 -0.998153 0.0605068
-1.25236 -0.304435 -0.150866 -3.72481e-05 -0.998008 0.0629732
-1.24275 -0.297682 -0.0237935 -3.2118e-05 -0.998517 0.0543187
-1.33216 -0.298543 -0.0400572 -3.28692e-05 -0.998442 0.0556026
-0.638209 -0.302033 -0.105302 -3.47536e-05 -0.998263 0.0586493
-1.07431 -0.301453 -0.0946553 -3.47924e-05 -0.998254 0.0587975
-0.290063 -0.3038 -0.138346 -3.57115e-05 -0.998171 0.060199
-1.13311 -0.30462 -0.154265 -3.72572e-05 -0.998009 0.0629658
-0.901301 -0.301956 -0.104019 -3.49841e-05 -0.998237 0.059088
-1.02122 -0.303106 -0.12571 -3.59867e-05 -0.998136 0.0608017
-1.08148 -0.304581 -0.153504 -3.71711e-05 -0.998018 0.0628109
-0.648634 -0.304478 -0.151304 -3.66182e-05 -0.998078 0.0617963
-0.948371 -0.302197 -0.10857 -3.52179e-05 -0.998213 0.0594913
-0.711203 -0.302546 -0.115005 -3.52228e-05 -0.998215 0.0594546
-0.505083 -0.301825 -0.101303 -3.44496e-05 -0.998294 0.0581114
-0.619462 -0.304468 -0.151097 -3.65786e-05 -0.998082 0.0617239
-0.841771 -0.300663 -0.0796484 -3.39383e-05 -0.998341 0.0573129
-0.703262 -0.304554 -0.152779 -3.67362e-05 -0.998065 0.0620057
-1.02701 -0.299359 -0.0552252 -3.3153e-05 -0.998417 0.0560234
-0.380525 -0.303039 -0.124074 -3.52335e-05 -0.998218 0.0594099
-1.15754 -0.298359 -0.036488 -3.25381e-05 -0.998477 0.055011
-0.841417 -0.304061 -0.143569 -3.65133e-05 -0.998086 0.0616559
-1.30173 -0.300298 -0.0730454 -3.41656e-05 -0.998314 0.0577835
-0.848795 -0.302582 -0.115756 -3.54006e-05 -0.998196 0.0597806
-1.08313 -0.301925 -0.103536 -3.51597e-05 -0.998217 0.0594186
-0.91837 -0.302968 -0.123065 -3.57698e-05 -0.998159 0.0604164
-0.17751 -0.304237 -0.146492 -3.5919e-05 -0.998152 0.0605276
-1.22171 -0.299012 -0.0488056 -3.31032e-05 -0.99842 0.0559764
-0.592033 -0.303603 -0.134813 -3.58931e-05 -0.99815 0.0605625
-1.31895 -0.300268 -0.0725051 -3.41623e-05 -0.998314 0.0577812
-0.234514 -0.304584 -0.153064 -3.62449e-05 -0.998119 0.0610881
-1.11886 -0.299554 -0.0589527 -3.34017e-05 -0.998391 0.0564603
-0.188691 -0.304247 -0.146683 -3.59387e-05 -0.99815 0.0605629
-0.48632 -0.302817 -0.119954 -3.5181e-05 -0.998222 0.0593414
-0.23203 -0.303637 -0.135241 -3.55241e-05 -0.998191 0.0598719
-0.66507 -0.303872 -0.139911 -3.61768e-05 -0.998121 0.0610549
-1.25614 -0.304105 -0.144646 -3.70016e-05 -0.998033 0.0625581
-1.04603 -0.302613 -0.116463 -3.56407e-05 -0.99817 0.0602229
-1.15706 -0.301925 -0.103577 -3.52406e-05 -0.998209 0.0595692
-0.997267 -0.299095 -0.0502422 -3.29203e-05 -0.998441 0.0556254
-0.835399 -0.299927 -0.0657901 -3.33731e-05 -0.998397 0.0563584
-1.01901 -0.300555 -0.077727 -3.4051e-05 -0.998328 0.0575366
-0.670212 -0.303494 -0.132799 -3.58958e-05 -0.998149 0.0605819
-1.14402 -0.300091 -0.0690644 -3.38361e-05 -0.998348 0.0571978
-0.820659 -0.301841 -0.101797 -3.48081e-05 -0.998255 0.0587758
-0.727136 -0.303064 -0.124754 -3.56327e-05 -0.998174 0.0601489
-0.483593 -0.3035 -0.132804 -3.56958e-05 -0.998171 0.0602092
-0.999356 -0.301266 -0.0910783 -3.45679e-05 -0.998277 0.0584046
-1.21586 -0.303257 -0.128681 -3.63152e-05 -0.998101 0.0613927
-0.177115 -0.303628 -0.135032 -3.54568e-05 -0.998198 0.059748
-1.07854 -0.298556 -0.0401532 -3.2601e-05 -0.998471 0.0551022
-0.572862 -0.302143 -0.107333 -3.47653e-05 -0.998262 0.0586567
-0.426302 -0.302328 -0.110726 -3.47448e-05 -0.998266 0.0585943
-0.525558 -0.302067 -0.105867 -3.46555e-05 -0.998274 0.0584625
-0.303337 -0.302988 -0.123069 -3.51102e-05 -0.998231 0.0591873
-1.10324 -0.29996 -0.0665728 -3.3692e-05 -0.998363 0.0569469
-0.747052 -0.304247 -0.147015 -3.6551e-05 -0.998083 0.0617015
-0.961276 -0.301185 -0.0895348 -3.44648e-05 -0.998288 0.0582236
-1.33851 -0.296775 -0.00679134 -3.15357e-05 -0.998574 0.0533547
-1.17823 -0.304344 -0.149105 -3.70977e-05 -0.998024 0.0627054
-0.365779 -0.30262 -0.116177 -3.48995e-05 -0.998251 0.0588438
-0.838477 -0.300238 -0.0716426 -3.36122e-05 -0.998374 0.0567623
-0.936039 -0.302842 -0.120691 -3.56931e-05 -0.998166 0.0602904
-0.476557 -0.302955 -0.122546 -3.52749e-05 -0.998213 0.059498
-0.999358 -0.303653 -0.135994 -3.63776e-05 -0.998097 0.0614569
-0.954723 -0.298987 -0.0481899 -3.2792e-05 -0.998454 0.0554009
-1.00569 -0.303293 -0.12922 -3.61114e-05 -0.998124 0.0610092
-0.622047 -0.301366 -0.0927464 -3.42304e-05 -0.998315 0.0577638
-0.915298 -0.303278 -0.128888 -3.60011e-05 -0.998136 0.060806
-1.2782 -0.297066 -0.0122364 -3.16904e-05 -0.998559 0.0536042
-1.05569 -0.303388 -0.13105 -3.62388e-05 -0.998111 0.0612335
-1.04599 -0.300003 -0.0673613 -3.36623e-05 -0.998366 0.0568861
-0.51907 -0.303977 -0.14181 -3.60967e-05 -0.998131 0.0608921
-1.1081 -0.300112 -0.0694311 -3.38123e-05 -0.998351 0.0571509
-1.04482 -0.304456 -0.151122 -3.70358e-05 -0.998032 0.0625758
-1.08123 -0.302351 -0.111544 -3.54803e-05 -0.998186 0.059959
-1.07367 -0.298818 -0.0450745 -3.27941e-05 -0.998452 0.0554269
-1.09332 -0.303054 -0.124776 -3.60264e-05 -0.998131 0.0608824
-1.25292 -0.304322 -0.148731 -3.71627e-05 -0.998017 0.0628293
-0.346473 -0.302727 -0.11819 -3.49599e-05 -0.998245 0.058942
-0.788957 -0.304218 -0.146491 -3.65748e-05 -0.99808 0.0617497
-0.701613 -0.302214 -0.108748 -3.49604e-05 -0.998241 0.0590102
-1.3516 -0.297781 -0.0257277 -3.23127e-05 -0.998497 0.0546677
-1.35116 -0.300283 -0.0727995 -3.42088e-05 -0.998309 0.0578656
-1.16704 -0.300481 -0.0764119 -3.41568e-05 -0.998316 0.0577431
-0.926881 -0.301435 -0.0942228 -3.46168e-05 -0.998273 0.0584734
-0.376465 -0.304514 -0.151833 -3.63476e-05 -0.998107 0.0612882
-1.12534 -0.300618 -0.0789746 -3.42153e-05 -0.998311 0.0578339
-0.645725 -0.304334 -0.148592 -3.65058e-05 -0.998089 0.0616061
-1.07934 -0.299978 -0.0668988 -3.36795e-05 -0.998364 0.0569213
-1.28306 -0.302593 -0.116223 -3.58853e-05 -0.998143 0.0606804
-1.08978 -0.302742 -0.11891 -3.57862e-05 -0.998155 0.0604767
-0.745058 -0.302634 -0.116675 -3.53264e-05 -0.998205 0.0596358
-0.571733 -0.303173 -0.126703 -3.55445e-05 -0.998185 0.0599708
-0.811204 -0.302958 -0.122813 -3.56447e-05 -0.998172 0.060185
-0.424938 -0.302265 -0.109538 -3.46955e-05 -0.998271 0.0585109
-1.11439 -0.30016 -0.0703479 -3.3856e-05 -0.998346 0.0572258
-0.909328 -0.300357 -0.0739303 -3.37804e-05 -0.998356 0.0570593
-1.01574 -0.30108 -0.0876008 -3.44453e-05 -0.998289 0.058201
-1.13425 -0.298162 -0.0327594 -3.23629e-05 -0.998494 0.0547111
-0.834353 -0.301339 -0.0923666 -3.44428e-05 -0.998291 0.0581623
-1.17984 -0.302694 -0.118064 -3.58487e-05 -0.998148 0.0605992
-1.30541 -0.301283 -0.0915935 -3.49169e-05 -0.998239 0.0590513
-0.889742 -0.30354 -0.133812 -3.61721e-05 -0.998119 0.0610895
-1.05387 -0.300974 -0.0856303 -3.44068e-05 -0.998292 0.0581433
-0.395302 -0.303983 -0.141846 -3.59654e-05 -0.998145 0.0606472
-0.382796 -0.303765 -0.137742 -3.57866e-05 -0.998163 0.0603433
-1.19659 -0.302882 -0.121601 -3.60092e-05 -0.998132 0.060873
-1.13257 -0.298375 -0.0367699 -3.25226e-05 -0.998478 0.0549803
-1.20224 -0.30461 -0.154129 -3.73258e-05 -0.998001 0.0630948
-0.593971 -0.301866 -0.102135 -3.45785e-05 -0.998281 0.0583457
-1.01912 -0.30025 -0.0719768 -3.38195e-05 -0.998351 0.057146
-1.27525 -0.303419 -0.131749 -3.65025e-05 -0.998082 0.0617199
-1.05641 -0.303513 -0.133396 -3.63341e-05 -0.998101 0.0613943
-0.643269 -0.301273 -0.0910014 -3.41828e-05 -0.998319 0.0576876
-1.29711 -0.307517 -0.199322 -3.69286e-05 -0.998046 0.0623968
-0.929414 -0.311911 -0.267224 -3.62305e-05 -0.998125 0.0611407
-1.35626 -0.313831 -0.297244 -3.54941e-05 -0.998205 0.0598427
-1.26357 -0.313434 -0.291037 -3.56496e-05 -0.998188 0.0601166
-0.461468 -0.313042 -0.284481 -3.63249e-05 -0.998115 0.0612933
-1.06421 -0.312403 -0.274937 -3.6023e-05 -0.998147 0.0607755
-0.949831 -0.31191 -0.267224 -3.62157e-05 -0.998126 0.0611149
-0.809513 -0.311463 -0.260204 -3.64173e-05 -0.998104 0.0614695
-0.792859 -0.314561 -0.308236 -3.57468e-05 -0.998179 0.0602742
-0.99992 -0.308434 -0.213364 -3.69447e-05 -0.998045 0.0624157
-1.18921 -0.308441 -0.213584 -3.68042e-05 -0.99806 0.0621716
-1.30581 -0.312838 -0.281825 -3.57498e-05 -0.998177 0.0602967
-1.16609 -0.314567 -0.308547 -3.54715e-05 -0.998208 0.059796
-0.666044 -0.310678 -0.24796 -3.66954e-05 -0.998074 0.0619603
-0.318123 -0.313186 -0.286629 -3.63984e-05 -0.998108 0.0614195
-0.256015 -0.313797 -0.296072 -3.63093e-05 -0.998118 0.0612586
-1.2952 -0.306641 -0.185732 -3.71231e-05 -0.998024 0.0627433
-0.902579 -0.312608 -0.278019 -3.60966e-05 -0.99814 0.0609011
-0.792752 -0.309971 -0.237064 -3.67583e-05 -0.998066 0.0620766
-1.13845 -0.307774 -0.203211 -3.69884e-05 -0.99804 0.0624982
-0.185634 -0.313946 -0.298332 -3.63282e-05 -0.998116 0.0612901
-1.21901 -0.311735 -0.264675 -3.60565e-05 -0.998143 0.0608403
-0.837043 -0.31082 -0.250249 -3.65387e-05 -0.998091 0.0616869
-1.21794 -0.308752 -0.218422 -3.67146e-05 -0.99807 0.0620129
-1.04831 -0.310618 -0.247258 -3.64279e-05 -0.998102 0.0614964
-0.753258 -0.314105 -0.301145 -3.58763e-05 -0.998164 0.0605037
-0.834993 -0.312185 -0.271425 -3.62393e-05 -0.998124 0.0611532
-1.19599 -0.309033 -0.222762 -3.66689e-05 -0.998075 0.0619307
-0.786984 -0.311222 -0.256463 -3.64868e-05 -0.998097 0.0615926
-0.779853 -0.310975 -0.252631 -3.65464e-05 -0.99809 0.0616986
-1.29284 -0.311976 -0.268445 -3.59494e-05 -0.998155 0.0606518
-0.90042 -0.30871 -0.217584 -3.69569e-05 -0.998044 0.0624342
-0.974888 -0.307857 -0.2044 -3.70902e-05 -0.998029 0.0626742
-0.964195 -0.309084 -0.223412 -3.68278e-05 -0.998058 0.0622063
-0.952834 -0.312395 -0.274751 -3.61065e-05 -0.998138 0.0609206
-1.34694 -0.312759 -0.280624 -3.5737e-05 -0.998178 0.0602753
-0.974105 -0.309083 -0.223413 -3.68206e-05 -0.998059 0.0621937
-1.23328 -0.311471 -0.260584 -3.61043e-05 -0.998138 0.0609259
-1.07236 -0.309802 -0.234608 -3.65902e-05 -0.998084 0.0617865
-1.09156 -0.312858 -0.282001 -3.59028e-05 -0.998161 0.0605622
-1.08447 -0.312782 -0.280822 -3.59247e-05 -0.998158 0.0606009
-1.12841 -0.308723 -0.217916 -3.67868e-05 -0.998062 0.0621385
-0.321491 -0.312854 -0.281489 -3.6469e-05 -0.9981 0.0615454
-0.560897 -0.310703 -0.248286 -3.67671e-05 -0.998066 0.0620845
-1.19345 -0.307154 -0.193626 -3.70847e-05 -0.998029 0.0626716
-1.22471 -0.306586 -0.184842 -3.71869e-05 -0.998017 0.0628547
-1.28687 -0.313525 -0.292461 -3.56124e-05 -0.998192 0.0600512
-1.00888 -0.314311 -0.30449 -3.56432e-05 -0.99819 0.0600969
-0.396771 -0.313488 -0.291359 -3.62741e-05 -0.998121 0.0612006
-0.396553 -0.314089 -0.300678 -3.61418e-05 -0.998136 0.0609649
-0.708712 -0.310962 -0.252374 -3.66017e-05 -0.998084 0.0617948
-0.890545 -0.309179 -0.224848 -3.68609e-05 -0.998055 0.0622627
-0.804969 -0.309933 -0.236489 -3.67576e-05 -0.998066 0.0620757
-0.779901 -0.312313 -0.273373 -3.62516e-05 -0.998123 0.0611733
-0.482677 -0.31151 -0.260748 -3.66467e-05 -0.99808 0.0618675
-1.19972 -0.307317 -0.196155 -3.70442e-05 -0.998033 0.0625997
-1.33072 -0.31384 -0.297378 -3.55107e-05 -0.998203 0.0598714
-1.10896 -0.311574 -0.262102 -3.6173e-05 -0.99813 0.0610441
-1.08018 -0.31288 -0.282339 -3.59063e-05 -0.99816 0.0605679
-0.291692 -0.31462 -0.308851 -3.61018e-05 -0.998141 0.0608901
-1.17515 -0.313402 -0.290487 -3.57216e-05 -0.99818 0.060242
-0.964976 -0.313651 -0.294232 -3.58209e-05 -0.99817 0.0604119
-0.303186 -0.313811 -0.296307 -3.62717e-05 -0.998122 0.0611933
-1.25567 -0.309038 -0.222869 -3.6624e-05 -0.99808 0.0618527
-1.33109 -0.305847 -0.173449 -3.72716e-05 -0.998008 0.0630091
-1.12393 -0.309109 -0.223893 -3.67051e-05 -0.998071 0.0619928
-0.362615 -0.312838 -0.281267 -3.64423e-05 -0.998103 0.0614992
-1.00952 -0.313358 -0.289704 -3.58529e-05 -0.998166 0.0604705
-1.31962 -0.307073 -0.192449 -3.70099e-05 -0.998037 0.0625425
-0.947879 -0.310731 -0.248942 -3.64769e-05 -0.998097 0.0615803
-0.973646 -0.311948 -0.267834 -3.61897e-05 -0.998129 0.0610695
-1.18303 -0.311449 -0.260214 -3.6146e-05 -0.998133 0.0609986
-1.35337 -0.310232 -0.241442 -3.62892e-05 -0.998117 0.0612593
-1.32972 -0.313715 -0.295434 -3.55391e-05 -0.9982 0.0599219
-0.423154 -0.313699 -0.294644 -3.62082e-05 -0.998129 0.0610842
-1.26341 -0.310418 -0.244274 -3.63142e-05 -0.998114 0.061301
-1.24993 -0.310356 -0.2433 -3.63378e-05 -0.998112 0.0613426
-1.01116 -0.31344 -0.290985 -3.58335e-05 -0.998168 0.060436
-1.09405 -0.308464 -0.213886 -3.6869e-05 -0.998053 0.0622839
-1.26207 -0.306178 -0.178543 -3.72493e-05 -0.99801 0.0629671
-1.35451 -0.313396 -0.290505 -3.55911e-05 -0.998194 0.0600155
-0.0941246 -0.314307 -0.303879 -3.63158e-05 -0.998118 0.0612649
-0.455768 -0.312652 -0.27843 -3.6415e-05 -0.998105 0.0614537
-1.08997 -0.310444 -0.244584 -3.64357e-05 -0.998101 0.0615116
-1.04951 -0.310134 -0.239741 -3.65339e-05 -0.998091 0.0616853
-0.439361 -0.312689 -0.27899 -3.64189e-05 -0.998105 0.0614602
-1.20897 -0.314728 -0.311072 -3.54045e-05 -0.998216 0.0596781
-0.80152 -0.309594 -0.23123 -3.68348e-05 -0.998058 0.0622133
-1.03402 -0.312625 -0.278367 -3.59962e-05 -0.99815 0.0607267
-1.2379 -0.313706 -0.295235 -3.56085e-05 -0.998193 0.0600427
-0.805239 -0.309785 -0.234187 -3.67901e-05 -0.998063 0.0621337
-1.20538 -0.306261 -0.179785 -3.72728e-05 -0.998008 0.0630071
-0.945711 -0.312339 -0.273872 -3.61242e-05 -0.998136 0.0609518
-0.882749 -0.31171 -0.264082 -3.6309e-05 -0.998116 0.061279
-1.17672 -0.308545 -0.215178 -3.67906e-05 -0.998062 0.062147
-1.35413 -0.31039 -0.243897 -3.62537e-05 -0.998121 0.0611962
-1.27284 -0.31311 -0.286027 -3.5714e-05 -0.998181 0.0602318
-1.25401 -0.310557 -0.246429 -3.62904e-05 -0.998117 0.0612582
-1.35472 -0.308396 -0.212987 -3.66926e-05 -0.998072 0.0619782
-0.476708 -0.312838 -0.281336 -3.63585e-05 -0.998112 0.0613537
-1.34082 -0.306203 -0.178968 -3.71861e-05 -0.998017 0.0628571
-1.25853 -0.307166 -0.19385 -3.70343e-05 -0.998034 0.062584
-1.3602 -0.314346 -0.305231 -3.53777e-05 -0.998218 0.0596354
-0.621996 -0.310457 -0.244495 -3.67766e-05 -0.998065 0.0621036
-1.34367 -0.313857 -0.297649 -3.54975e-05 -0.998205 0.0598483
-1.13105 -0.31266 -0.278958 -3.59174e-05 -0.998159 0.0605895
-1.25057 -0.310761 -0.249585 -3.62481e-05 -0.998122 0.0611827
-1.11795 -0.310926 -0.252065 -3.63091e-05 -0.998115 0.061287
-1.18499 -0.306057 -0.176607 -3.73327e-05 -0.998001 0.0631133
-0.914875 -0.308008 -0.206704 -3.71011e-05 -0.998028 0.0626915
-0.582153 -0.312383 -0.274345 -3.63813e-05 -0.998109 0.0613979
-1.24542 -0.307904 -0.205293 -3.68812e-05 -0.998051 0.0623107
-0.934646 -0.310096 -0.23909 -3.66265e-05 -0.998081 0.0618465
-0.814189 -0.310102 -0.239103 -3.67137e-05 -0.998071 0.0619979
-0.250541 -0.31434 -0.304486 -3.61937e-05 -0.998131 0.0610525
-1.11609 -0.31461 -0.309189 -3.54987e-05 -0.998205 0.0598428
-0.625231 -0.311394 -0.259024 -3.65678e-05 -0.998088 0.0617316
-0.453887 -0.313929 -0.298236 -3.61349e-05 -0.998137 0.0609545
-1.00473 -0.309618 -0.231725 -3.66803e-05 -0.998074 0.0619447
-0.883922 -0.314022 -0.299935 -3.57987e-05 -0.998173 0.0603697
-1.08163 -0.311049 -0.253958 -3.63085e-05 -0.998115 0.0612848
-0.242161 -0.313343 -0.289015 -3.64196e-05 -0.998106 0.0614548
-0.889024 -0.30965 -0.232148 -3.67582e-05 -0.998066 0.0620797
-0.201771 -0.314151 -0.301519 -3.62712e-05 -0.998122 0.0611891
-0.920765 -0.312918 -0.282832 -3.6015e-05 -0.998149 0.0607563
-1.09482 -0.313529 -0.292417 -3.57524e-05 -0.998177 0.0602943
-1.28372 -0.306562 -0.184504 -3.71489e-05 -0.998022 0.0627889
-1.0525 -0.314405 -0.305969 -3.55906e-05 -0.998195 0.0600044
-0.810352 -0.313241 -0.28778 -3.60248e-05 -0.998148 0.0607701
-1.17934 -0.311087 -0.254594 -3.62286e-05 -0.998124 0.0611456
-1.22095 -0.310139 -0.239923 -3.64069e-05 -0.998104 0.0614647
-0.846741 -0.311908 -0.267132 -3.62918e-05 -0.998118 0.0612472
-1.1463 -0.310753 -0.249397 -3.63264e-05 -0.998113 0.0613188
-0.715893 -0.312172 -0.27115 -3.63297e-05 -0.998114 0.0613103
-0.610897 -0.311991 -0.268285 -3.64466e-05 -0.998102 0.0615151
-1.01435 -0.314718 -0.310807 -3.55495e-05 -0.9982 0.05993
-0.940633 -0.309148 -0.224394 -3.6831e-05 -0.998058 0.0622111
-0.700208 -0.314128 -0.301458 -3.59103e-05 -0.998161 0.0605626
-1.1587 -0.310399 -0.243927 -3.63951e-05 -0.998106 0.0614417
-0.645226 -0.313922 -0.298231 -3.59961e-05 -0.998151 0.0607136
-0.957116 -0.314735 -0.311029 -3.55879e-05 -0.998196 0.0599965
-0.977544 -0.312981 -0.283847 -3.59593e-05 -0.998155 0.0606591
-1.0754 -0.309314 -0.227047 -3.66955e-05 -0.998073 0.0619741
-1.07137 -0.313928 -0.29858 -3.56819e-05 -0.998185 0.0601678
-0.968266 -0.313329 -0.289238 -3.58894e-05 -0.998162 0.0605342
-0.573308 -0.312136 -0.270496 -3.64424e-05 -0.998102 0.0615065
-1.32406 -0.307242 -0.195074 -3.69694e-05 -0.998041 0.0624704
-0.822264 -0.313103 -0.285651 -3.60464e-05 -0.998145 0.0608091
-1.28197 -0.309012 -0.222483 -3.66104e-05 -0.998081 0.0618294
-0.684018 -0.314665 -0.309778 -3.58039e-05 -0.998173 0.0603723
-0.986595 -0.312385 -0.27461 -3.6084e-05 -0.998141 0.0608816
-1.07648 -0.310129 -0.239686 -3.65151e-05 -0.998093 0.0616527
-1.20119 -0.309442 -0.229102 -3.6575e-05 -0.998086 0.0617636
-1.23251 -0.306802 -0.188192 -3.71336e-05 -0.998023 0.06276
-0.914023 -0.314013 -0.299802 -3.57787e-05 -0.998175 0.0603351
-1.27061 -0.311473 -0.260644 -3.60764e-05 -0.998141 0.0608774
-0.704529 -0.311706 -0.263915 -3.64407e-05 -0.998102 0.0615078
-1.30602 -0.311769 -0.265249 -3.59852e-05 -0.998151 0.0607162
-1.23578 -0.308015 -0.207007 -3.68639e-05 -0.998053 0.0622795
-0.229185 -0.314513 -0.307152 -3.61713e-05 -0.998133 0.0610119
-1.32979 -0.306264 -0.179905 -3.71808e-05 -0.998018 0.0628473
-0.705084 -0.312374 -0.274274 -3.62931e-05 -0.998118 0.0612448
-1.16699 -0.313609 -0.29369 -3.5682e-05 -0.998185 0.0601711
-1.32129 -0.311161 -0.255826 -3.61081e-05 -0.998137 0.0609355
-1.3264 -0.307584 -0.200371 -3.68924e-05 -0.99805 0.0623333
-1.24734 -0.311033 -0.253796 -3.61906e-05 -0.998128 0.0610801
-1.0364 -0.314732 -0.311027 -3.55304e-05 -0.998202 0.0598967
-1.23236 -0.313299 -0.288925 -3.57022e-05 -0.998182 0.0602094
-0.401758 -0.313934 -0.298278 -3.61721e-05 -0.998133 0.0610191
-1.28548 -0.314705 -0.310755 -3.53535e-05 -0.998221 0.0595897
-0.350351 -0.312959 -0.283133 -3.64247e-05 -0.998105 0.0614674
-1.06312 -0.313239 -0.287896 -3.58397e-05 -0.998168 0.0604487
-0.892536 -0.313049 -0.284844 -3.60069e-05 -0.99815 0.0607409
-0.942819 -0.318505 -0.374985 1.66348e-05 -0.992729 -0.0279233
-0.532764 -0.319449 -0.390769 1.71788e-05 -0.992683 -0.0288586
-1.3173 -0.319404 -0.390477 4.88195e-05 -0.989301 -0.082067
-0.775165 -0.317524 -0.358228 -8.50629e-06 -0.995403 0.0143772
-1.06552 -0.318889 -0.381572 2.8832e-05 -0.991431 -0.0484432
-1.1987 -0.32021 -0.40409 5.88636e-05 -0.988239 -0.0989753
-0.871726 -0.319764 -0.396323 3.70563e-05 -0.990563 -0.0622929
-1.0858 -0.319001 -0.383487 3.17503e-05 -0.99112 -0.0533533
-0.752813 -0.320361 -0.406386 4.32083e-05 -0.989913 -0.0726514
-1.33327 -0.318601 -0.37684 3.45681e-05 -0.990814 -0.0580832
-0.805365 -0.317533 -0.3584 -7.08829e-06 -0.995251 0.0119924
-1.06599 -0.318923 -0.382148 2.94807e-05 -0.991362 -0.049535
-0.723562 -0.318211 -0.369856 2.09876e-06 -0.994278 -0.00347196
-0.463732 -0.319756 -0.395948 2.0026e-05 -0.992382 -0.0336533
-0.534026 -0.318809 -0.379898 5.35057e-06 -0.993938 -0.00895345
-0.327599 -0.319438 -0.390463 8.48629e-06 -0.993611 -0.0142404
-1.33274 -0.315018 -0.316002 -3.19342e-05 -0.997874 0.0538297
-0.822767 -0.320077 -0.401615 4.08451e-05 -0.990162 -0.0686712
-0.495999 -0.32015 -0.402648 2.86617e-05 -0.991465 -0.0481843
-0.425121 -0.319461 -0.390918 1.29568e-05 -0.993134 -0.0217588
-1.23649 -0.320747 -0.413227 7.03879e-05 -0.987014 -0.118367
-1.07024 -0.316147 -0.335027 -2.1839e-05 -0.99681 0.0368284
-0.755133 -0.317582 -0.359207 -8.25266e-06 -0.995376 0.0139494
-0.903188 -0.317244 -0.35355 -8.40288e-06 -0.995388 0.0142094
-0.826373 -0.317694 -0.361136 -3.24178e-06 -0.994842 0.0055203
-1.05565 -0.3188 -0.380068 2.67864e-05 -0.991648 -0.0450013
-0.782028 -0.320366 -0.406499 4.45223e-05 -0.989773 -0.0748614
-0.202427 -0.320021 -0.400297 1.41338e-05 -0.993015 -0.0237503
-0.764482 -0.320309 -0.405505 4.27209e-05 -0.989965 -0.0718308
-0.675738 -0.319818 -0.397129 2.99529e-05 -0.991322 -0.0503485
-0.0656611 -0.320666 -0.411164 2.04373e-05 -0.99235 -0.0343647
-1.30262 -0.320695 -0.412386 7.2163e-05 -0.986824 -0.121351
-1.17576 -0.316116 -0.334556 -1.80548e-05 -0.996405 0.0304652
-1.14081 -0.319739 -0.396064 4.77351e-05 -0.989422 -0.0802506
-0.74029 -0.320683 -0.411849 4.86682e-05 -0.989334 -0.0818403
-1.1402 -0.320555 -0.409905 6.28353e-05 -0.987819 -0.105662
-0.902277 -0.318071 -0.367595 6.9086e-06 -0.993763 -0.0115575
-0.317398 -0.319544 -0.392266 1.0041e-05 -0.993446 -0.0168573
-0.93595 -0.32033 -0.405976 5.02213e-05 -0.989163 -0.0844445
-0.98158 -0.317083 -0.350865 -8.14341e-06 -0.995358 0.0137765
-0.853216 -0.319407 -0.390251 2.96672e-05 -0.991348 -0.049859
-0.710474 -0.320421 -0.407377 4.25669e-05 -0.989982 -0.0715742
-0.361067 -0.319463 -0.390904 1.03318e-05 -0.993414 -0.0173444
-0.634913 -0.320717 -0.41237 4.49447e-05 -0.989732 -0.0755792
-0.728741 -0.318333 -0.371939 4.58576e-06 -0.994014 -0.00765695
-1.15502 -0.318066 -0.367663 1.72785e-05 -0.992655 -0.0289962
-0.714623 -0.320724 -0.412536 4.83733e-05 -0.989366 -0.0813451
-1.25885 -0.319845 -0.39793 5.45826e-05 -0.988691 -0.0917681
-1.17174 -0.316115 -0.33453 -1.82465e-05 -0.996425 0.0307876
-1.28309 -0.320729 -0.412956 7.19898e-05 -0.986843 -0.12106
-0.252605 -0.320701 -0.411865 2.88188e-05 -0.991455 -0.0484604
-0.629484 -0.319561 -0.392735 2.32668e-05 -0.992034 -0.039099
-0.79687 -0.318428 -0.373583 9.15763e-06 -0.993527 -0.0153474
-1.34649 -0.319428 -0.390892 5.04624e-05 -0.989126 -0.0848302
-0.863079 -0.317133 -0.351643 -1.21207e-05 -0.995784 0.0204639
-1.12353 -0.317534 -0.358605 6.09772e-06 -0.993842 -0.0101822
-1.0531 -0.316927 -0.348246 -8.09134e-06 -0.995351 0.0136924
-0.785662 -0.317784 -0.362646 -3.25025e-06 -0.994844 0.00553259
-0.99766 -0.316489 -0.340784 -1.85049e-05 -0.996458 0.031214
-0.491194 -0.319793 -0.396582 2.18376e-05 -0.992189 -0.0367006
-0.87177 -0.320458 -0.408109 4.99378e-05 -0.989195 -0.0839704
-0.642453 -0.318149 -0.368766 -2.39713e-06 -0.994758 0.00408998
-0.740145 -0.320015 -0.400499 3.62592e-05 -0.990651 -0.0609578
-1.23229 -0.316392 -0.339281 -1.05887e-05 -0.995611 0.0179038
-0.187052 -0.32044 -0.407396 2.12651e-05 -0.992259 -0.0357519
-1.26181 -0.320661 -0.411785 6.98437e-05 -0.987071 -0.11745
-1.13752 -0.316281 -0.337335 -1.65763e-05 -0.996249 0.0279753
-1.34107 -0.319823 -0.397599 5.75703e-05 -0.988372 -0.096792
-0.407149 -0.319673 -0.394497 1.6135e-05 -0.992797 -0.0271081
-0.42775 -0.319762 -0.39603 1.86493e-05 -0.992529 -0.0313382
-1.09172 -0.319128 -0.385649 3.43548e-05 -0.990843 -0.057736
-0.669408 -0.318696 -0.378064 8.86193e-06 -0.993562 -0.014856
-0.591787 -0.319459 -0.390976 1.98092e-05 -0.992402 -0.0332822
-0.52103 -0.318548 -0.375469 -1.87264e-08 -0.994509 8.16132e-05
-0.687223 -0.318938 -0.382182 1.4087e-05 -0.993007 -0.0236481
-0.581265 -0.320818 -0.414041 4.45852e-05 -0.989772 -0.074977
-1.11749 -0.316628 -0.343222 -1.09586e-05 -0.995653 0.0185207
-0.616566 -0.318654 -0.377323 5.89947e-06 -0.993878 -0.00987315
-1.20169 -0.316742 -0.345195 -5.37204e-06 -0.995058 0.00912339
-0.984918 -0.317469 -0.357415 -8.49198e-07 -0.994584 0.00150165
-0.881734 -0.318161 -0.369115 7.73231e-06 -0.993676 -0.0129447
-1.13861 -0.317479 -0.357672 5.69159e-06 -0.993885 -0.00949802
-0.952216 -0.318757 -0.379275 2.17059e-05 -0.99219 -0.0364566
-0.637231 -0.318843 -0.380541 1.02573e-05 -0.993415 -0.0172058
-0.83361 -0.319203 -0.386769 2.50638e-05 -0.991837 -0.0421132
-1.13788 -0.320536 -0.409588 6.23946e-05 -0.987865 -0.10492
-1.19998 -0.31975 -0.396277 5.03785e-05 -0.989139 -0.0846961
-1.0674 -0.319891 -0.398588 4.75024e-05 -0.989448 -0.0798626
-0.357124 -0.320117 -0.402003 2.22996e-05 -0.992144 -0.0374845
-0.325377 -0.320566 -0.409618 2.93279e-05 -0.991399 -0.0493137
-1.12708 -0.317853 -0.364014 1.21524e-05 -0.9932 -0.0203712
-0.909647 -0.32077 -0.413425 5.729e-05 -0.988414 -0.0963411
-1.29929 -0.3202 -0.403971 6.28319e-05 -0.987814 -0.105648
-1.22436 -0.320705 -0.412513 6.9114e-05 -0.98715 -0.116224
-1.17488 -0.32024 -0.404581 5.84308e-05 -0.988285 -0.0982482
-1.17443 -0.315863 -0.330265 -2.27981e-05 -0.996909 0.0384474
-0.917088 -0.317917 -0.36499 4.66449e-06 -0.994 -0.00778032
-0.709559 -0.31808 -0.367621 -9.13861e-07 -0.994598 0.00159712
-0.964891 -0.316819 -0.346369 -1.37364e-05 -0.995953 0.0231879
-0.676025 -0.319477 -0.391329 2.36265e-05 -0.991994 -0.0397022
-1.23412 -0.316814 -0.346437 -2.69438e-06 -0.994773 0.00461889
-1.02032 -0.318165 -0.369257 1.35332e-05 -0.993056 -0.0226999
-0.392852 -0.319193 -0.386348 6.64763e-06 -0.993805 -0.011143
-0.491147 -0.319522 -0.391987 1.68148e-05 -0.992722 -0.0282481
-0.399565 -0.31496 -0.445931 0.000355863 -0.725473 -0.599795
-0.340044 -0.315769 -0.441588 0.000303735 -0.775846 -0.51177
-0.689246 -0.315272 -0.444444 0.000358498 -0.721102 -0.604376
-1.14161 -0.319424 -0.422612 0.000146086 -0.921942 -0.246009
-1.08313 -0.316152 -0.439993 0.000335118 -0.741018 -0.56509
-1.25254 -0.315277 -0.444749 0.000399091 -0.678585 -0.673162
-0.951663 -0.316726 -0.436859 0.000291653 -0.783541 -0.491655
-0.347492 -0.315855 -0.441138 0.000299233 -0.780116 -0.504173
-1.17752 -0.315818 -0.441826 0.000361702 -0.714921 -0.610011
-1.27149 -0.318113 -0.429663 0.000232923 -0.837832 -0.392659
-1.02516 -0.31873 -0.426235 0.000178603 -0.891497 -0.300847
-1.33021 -0.314955 -0.446506 0.000423728 -0.654461 -0.714789
-1.04597 -0.316672 -0.437202 0.000301692 -0.773312 -0.508647
-0.308271 -0.314847 -0.44648 0.000355926 -0.725993 -0.59986
-0.474836 -0.316436 -0.43812 0.000274151 -0.803361 -0.461891
-0.978696 -0.316649 -0.437283 0.000298148 -0.77714 -0.502632
-1.18111 -0.315881 -0.441494 0.000358254 -0.718205 -0.604192
-0.904578 -0.318103 -0.429503 0.000206909 -0.865116 -0.348577
-0.766298 -0.316805 -0.43633 0.000273537 -0.802096 -0.460988
-0.736296 -0.316043 -0.440368 0.000316368 -0.761209 -0.533277
-1.04708 -0.315175 -0.445171 0.000390203 -0.688417 -0.658063
-1.18914 -0.315098 -0.445663 0.000405051 -0.673272 -0.683194
-1.23533 -0.318169 -0.429348 0.000227033 -0.843711 -0.3827
-1.03957 -0.318942 -0.425116 0.000167129 -0.90241 -0.281485
-0.393836 -0.315674 -0.442126 0.000313258 -0.766371 -0.52787
-0.918465 -0.317212 -0.43425 0.000260509 -0.813621 -0.439066
-1.29404 -0.31698 -0.43571 0.000301519 -0.7719 -0.508467
-0.724849 -0.317999 -0.429948 0.00019997 -0.872916 -0.336779
-1.01676 -0.318555 -0.427163 0.00018835 -0.882202 -0.317299
-0.767309 -0.316391 -0.438534 0.000298067 -0.778563 -0.502398
-1.14458 -0.31792 -0.430618 0.000235133 -0.83652 -0.396333
-0.488492 -0.314853 -0.446556 0.000368671 -0.712623 -0.621458
-0.621797 -0.316388 -0.43846 0.000287636 -0.789493 -0.484723
-1.09419 -0.319226 -0.423634 0.000154293 -0.914372 -0.259842
-0.682472 -0.31698 -0.435348 0.000257102 -0.818391 -0.433206
-0.879293 -0.316325 -0.438951 0.000310093 -0.766316 -0.522751
-0.189645 -0.314911 -0.446067 0.000343504 -0.738662 -0.578836
-1.15123 -0.319759 -0.420835 0.000126994 -0.940192 -0.213783
-0.752369 -0.317034 -0.435101 0.000258982 -0.816143 -0.436411
-0.260181 -0.292818 -0.463534 0.000491315 0.19773 -0.829484
-0.897001 -0.303136 -0.456069 0.000466402 -0.172199 -0.787041
-0.988101 -0.303708 -0.455688 0.000465342 -0.181206 -0.785179
-1.26745 -0.296011 -0.461704 0.000488281 0.250387 -0.823484
-0.995615 -0.299596 -0.458818 0.000476779 0.0201206 -0.804394
-0.271325 -0.294492 -0.462268 0.00048674 0.118689 -0.821785
-1.1187 -0.309982 -0.450997 0.000448712 -0.459091 -0.75711
-1.26427 -0.300529 -0.458268 0.000475745 0.0302314 -0.802417
-1.34162 -0.292798 -0.46419 0.000497612 0.4218 -0.839101
-0.505617 -0.294974 -0.462041 0.000486758 0.143625 -0.821606
-0.936705 -0.304572 -0.455001 0.000462652 -0.233785 -0.780702
-0.82609 -0.295786 -0.461613 0.000486357 0.170258 -0.820644
-0.773618 -0.303761 -0.455521 0.000463958 -0.228011 -0.783044
-1.27914 -0.297001 -0.460958 0.000485605 0.204687 -0.818976
-1.26922 -0.303995 -0.455636 0.000466169 -0.137179 -0.786316
-1.20862 -0.310887 -0.450362 0.000446724 -0.484515 -0.753687
-0.907479 -0.2965 -0.461118 0.000484848 0.152348 -0.818035
-1.1771 -0.292985 -0.46395 0.000496144 0.378761 -0.83678
-1.09947 -0.309851 -0.451085 0.000448965 -0.456691 -0.757551
-0.583672 -0.301658 -0.457006 0.000468688 -0.165044 -0.791163
-0.996971 -0.283165 -0.45835 0.000429998 0.585729 -0.725283
-1.09015 -0.277361 -0.454729 0.000377086 0.691174 -0.635978
-1.08436 -0.285162 -0.459666 0.000444455 0.555362 -0.749608
-1.14446 -0.270209 -0.450231 0.00031379 0.818101 -0.529184
-1.18847 -0.277157 -0.454658 0.000372257 0.699559 -0.627766
-0.65307 -0.2737 -0.452151 0.00035924 0.7332 -0.606175
-1.02253 -0.269148 -0.449487 0.000308468 0.83052 -0.520289
-0.605813 -0.276944 -0.454178 0.000388663 0.674503 -0.655831
-0.562161 -0.275692 -0.453359 0.000379247 0.694098 -0.63998
-0.108141 -0.268204 -0.448348 0.00032897 0.801776 -0.555489
-1.16614 -0.285159 -0.459713 0.000441867 0.559454 -0.745188
-0.423009 -0.27203 -0.450957 0.000352062 0.750854 -0.594222
-0.845253 -0.272944 -0.451786 0.000346713 0.755818 -0.584916
-1.35286 -0.275717 -0.453843 0.000354703 0.7327 -0.598048
-0.30749 -0.269147 -0.449063 0.000330851 0.795232 -0.558527
-0.68431 -0.271045 -0.450488 0.000335401 0.780856 -0.565946
-1.02548 -0.282158 -0.457729 0.000420425 0.604645 -0.709119
