0.136642 0.0636889 0.165633 0.0285565 0.848216 -0.182383
0.124767 0.135565 0.444004 0.0256868 0.953289 -0.00273333
0.129667 0.108755 0.329178 0.0241915 0.923395 -0.0771054
0.125346 -0.0618787 0.42741 0.208165 0.0319311 0.0047693
0.12726 -0.0319623 0.383188 0.169608 0.211063 -0.0276674
0.121457 0.0525759 0.519973 0.121744 0.495873 0.0559682
0.126413 0.123486 0.405372 0.0280716 0.928736 -0.027466
0.123893 -0.073428 0.461157 0.226941 -0.0513256 0.0284584
0.124042 -0.0728653 0.457677 0.225598 -0.0457169 0.026075
0.126687 0.04906 0.397827 0.0965549 0.582525 -0.0255021
0.129062 0.0508454 0.342407 0.0819353 0.637857 -0.062786
0.136768 0.0109701 0.161887 0.077439 0.601629 -0.179922
0.127612 0.0922649 0.376909 0.0508953 0.804901 -0.0435849
0.127995 0.0247635 0.366912 0.112271 0.493567 -0.0439152
0.124157 0.0173745 0.456401 0.14013 0.382874 0.0167122
0.123049 -0.00572774 0.481918 0.16789 0.251845 0.0359798
0.125183 0.00252361 0.432223 0.148504 0.332967 0.00192041
0.123339 0.0857426 0.476556 0.0803076 0.689722 0.0237643
0.131236 0.0313276 0.291347 0.0884398 0.588577 -0.0951406
0.121947 -0.109893 0.506026 0.27183 -0.26203 0.0619457
0.142883 0.0483513 0.0196706 0.0135779 0.920466 -0.0275245
0.125695 -0.129532 0.418206 0.270049 -0.279952 0.0147949
0.133512 -0.04645 0.237001 0.151101 0.275087 -0.0186725
0.13501 -0.023785 0.202378 0.121171 0.409615 -0.0689313
0.137035 0.00627279 0.155576 0.0813283 0.589034 -0.133122
0.135466 -0.0136061 0.191896 0.108592 0.464254 -0.105574
0.141587 0.0630385 0.0501649 0.00318682 0.947287 -0.207076
0.141035 0.0321758 0.0625827 0.0380346 0.8037 -0.0422038
0.139764 0.0165106 0.0919943 0.0596535 0.704468 -0.0226891
0.13328 -0.0405031 0.242515 0.145732 0.293738 -0.0723994
0.135219 -0.0335703 0.197331 0.130692 0.374334 0.00829294
0.140761 0.0214159 0.0688058 0.050506 0.75148 0.0100179
0.126534 -0.122873 0.39873 0.259673 -0.22982 0.0258671
0.142658 0.0494054 0.0249474 0.0133574 0.918869 -0.0489867
0.140387 0.0449113 0.0779116 0.0271339 0.839629 -0.167036
0.134706 -0.0424316 0.209165 0.142104 0.323678 0.0326681
0.133213 -0.0351444 0.244155 0.140327 0.314341 -0.111567
0.134565 -0.0215514 0.212796 0.120574 0.407103 -0.11229
0.136 0.000747332 0.17965 0.0912843 0.538411 -0.164283
0.127618 -0.112289 0.373576 0.244168 -0.156752 0.027349
0.126208 -0.131443 0.406202 0.270034 -0.27428 0.0604739
0.130273 -0.0762252 0.312164 0.195469 0.0645128 -0.0350655
0.141137 0.0309778 0.0601737 0.0388955 0.801423 -0.0277759
0.144342 0.0476528 -0.01439 0.00855418 0.930138 0.0397352
0.144573 -0.03156 -0.0210175 0.084278 0.451978 0.0612876
0.144455 -0.030731 -0.018258 0.08343 0.459526 0.0381494
0.124517 0.143273 0.449955 0.0223217 0.948093 -0.052789
0.124457 0.143225 0.451345 0.0224545 0.950137 -0.0468418
0.138041 0.0829007 0.133284 0.00422509 0.946936 -0.234429
0.132234 0.114175 0.26934 0.01109 0.912678 -0.24415
0.139877 0.0734332 0.0902634 0.00198254 0.955024 -0.238285
0.132435 0.106339 0.264532 0.0119956 0.957731 -0.133097
0.13173 0.110631 0.281043 0.012744 0.950342 -0.142439
0.137859 0.0885925 0.137627 0.00364346 0.915268 -0.311944
0.137332 0.0932067 0.149993 0.00396513 0.900613 -0.341972
0.136289 0.0933695 0.174346 0.00612118 0.929886 -0.254309
0.126375 0.146401 0.406633 0.0187384 0.895267 -0.176572
0.123079 0.150142 0.483624 0.02434 0.949689 -0.0227794
0.133891 0.113839 0.23065 0.00771308 0.867582 -0.37842
0.136897 0.125303 0.160659 0.00151959 0.758236 -0.6109
0.130254 0.144935 0.316055 0.0119307 0.819419 -0.375804
0.132917 0.135538 0.253742 0.00786894 0.801028 -0.460568
0.124761 0.145718 0.444304 0.0216654 0.932021 -0.0856509
0.132185 0.148335 0.271023 0.00824043 0.765081 -0.500594
0.136462 0.121896 0.170759 0.00254325 0.781078 -0.56642
0.135288 0.137293 0.198398 0.00351301 0.744006 -0.598829
0.126426 0.140941 0.405343 0.0190443 0.916096 -0.145499
0.132022 0.144998 0.274783 0.00877473 0.781915 -0.471141
0.1363 0.125347 0.174589 0.00257998 0.770632 -0.579128
0.130013 0.137945 0.321556 0.0128686 0.85254 -0.319571
0.130916 0.149082 0.300649 0.0104472 0.788812 -0.437098
0.134231 0.131485 0.223003 0.00582202 0.789607 -0.506018
0.136841 0.113014 0.161766 0.00251451 0.808733 -0.53174
0.129717 0.13729 0.328477 0.0134456 0.861423 -0.299569
0.126199 0.154091 0.410857 0.0769698 0.813306 -0.174773
0.13308 0.158731 0.250284 0.270037 0.456945 -0.432346
0.127222 0.152987 0.386952 0.0616756 0.808873 -0.232162
0.145027 0.104651 -0.168317 0.425473 0.194136 0.378686
0.144867 -0.064521 -0.0907483 0.145758 -0.0739342 0.344709
0.144826 -0.108028 -0.0711311 0.175801 -0.213931 0.255177
0.144979 0.0667722 -0.131207 0.0315878 0.570026 0.575772
0.145027 0.115311 -0.155317 0.000860353 0.699929 0.6803
0.14496 0.043563 -0.123959 0.0516497 0.457326 0.534725
0.144824 -0.0974774 -0.0554161 0.154744 -0.0275383 0.184239
0.144928 0.0364754 -0.0794692 0.0322205 0.71604 0.318778
0.144907 0.000862231 -0.0847482 0.0707456 0.445721 0.343813
0.144778 -0.153076 -0.0415331 0.203611 -0.311908 0.108086
0.144966 0.0670347 -0.108867 0.0164563 0.736922 0.474008
0.144985 0.0859457 -0.118936 0.00256075 0.800376 0.527764
0.144734 -0.21035 -0.0326379 0.256706 -0.638482 0.0577977
0.144937 0.0319249 -0.100421 0.0474791 0.555345 0.427593
0.144881 -0.0247512 -0.0693145 0.0886509 0.370946 0.261656
0.144857 -0.0612273 -0.0711592 0.126294 0.116239 0.268744
0.14497 0.0796011 -0.101293 -4.84012e-05 0.867833 0.435431
0.144939 0.0451387 -0.0892016 0.0284643 0.713259 0.370068
0.144853 -0.0342056 -0.0335869 0.0881306 0.41833 0.133353
0.144862 -0.033661 -0.0474845 0.090335 0.394741 0.174823
0.144879 -0.00576952 -0.045924 0.0634143 0.563912 0.182481
0.144913 0.0284852 -0.064296 0.0343286 0.732505 0.252076
0.144814 -0.102104 -0.0441476 0.154991 -0.0065535 0.134771
0.144881 -0.00223113 -0.0448805 0.0598334 0.587006 0.180944
0.144843 -0.0643299 -0.0507513 0.12024 0.20573 0.171004
0.144871 -0.0208124 -0.0486025 0.0782937 0.469126 0.1838
0.144889 0.012142 -0.0421678 0.0455864 0.677869 0.179228
0.144882 -0.00611987 -0.0510831 0.0647599 0.551864 0.197632
0.144855 -0.035272 -0.0371874 0.089854 0.405025 0.143565
-0.146281 0.00835783 0.154628 -0.129549 0.136645 -0.458423
-0.146837 0.0937877 0.140811 -0.0431451 0.440156 -0.655937
-0.146212 0.0589413 0.156012 -0.0809984 0.315814 -0.572758
-0.150894 -0.169349 0.0447831 -0.271469 -0.486863 -0.085439
-0.144924 0.0311522 0.187108 -0.116362 0.215582 -0.501241
-0.145579 -0.194977 0.172597 -0.33113 -0.584908 0.00760714
-0.135031 -0.185039 0.425937 -0.390637 -0.564025 0.0543013
-0.149624 -0.207489 0.0755075 -0.316743 -0.623754 0.00945076
-0.140885 -0.047502 0.284567 -0.219032 -0.0686514 -0.296236
-0.136985 -0.0946513 0.378515 -0.29027 -0.241045 -0.163638
-0.138518 -0.025899 0.34131 -0.213617 0.00469091 -0.329721
-0.134819 -0.109345 0.430619 -0.318698 -0.296061 -0.116077
-0.147405 0.0292928 0.127528 -0.101905 0.212364 -0.513306
-0.14701 0.0326425 0.136988 -0.101246 0.223698 -0.518317
-0.14688 -0.100883 0.140847 -0.231453 -0.24968 -0.214455
-0.132821 -0.149599 0.478846 -0.370792 -0.441432 -0.011611
-0.136594 -0.133076 0.388123 -0.330058 -0.377752 -0.0738721
-0.151039 -0.164196 0.0412581 -0.265523 -0.468402 -0.0980889
-0.145712 -0.160017 0.169228 -0.296395 -0.460835 -0.0725944
-0.135946 -0.140571 0.403726 -0.341565 -0.405192 -0.052612
-0.149849 -0.0795259 0.0693928 -0.191301 -0.169958 -0.282414
-0.140436 -0.0311498 0.295253 -0.20613 -0.0113101 -0.330399
-0.148237 0.0310382 0.107527 -0.0947597 0.21968 -0.52273
-0.145589 -0.0403039 0.17153 -0.181229 -0.0367491 -0.34345
-0.142403 -0.0225363 0.247956 -0.184894 0.0218884 -0.362858
-0.141472 0.0167738 0.270106 -0.152914 0.159935 -0.445952
-0.145621 -0.0463327 0.17078 -0.186856 -0.0580703 -0.329983
-0.146359 0.103187 0.152243 -0.0371724 0.472817 -0.674129
-0.145611 0.00771243 0.170734 -0.134567 0.133447 -0.452559
-0.145002 -0.0500598 0.185667 -0.194522 -0.0721197 -0.317462
-0.142674 0.0588643 0.241021 -0.104266 0.310732 -0.549353
-0.150814 -0.214782 0.0469493 -0.316006 -0.647983 0.0181868
-0.136844 -0.0731978 0.381792 -0.270412 -0.165207 -0.211395
-0.147835 -0.212474 0.118493 -0.333293 -0.643852 0.0325031
-0.145363 -0.0442665 0.176962 -0.186544 -0.0510982 -0.332979
-0.138061 -0.122964 0.352816 -0.310644 -0.339919 -0.106454
-0.143106 -0.101824 0.231501 -0.257097 -0.258145 -0.187546
-0.133777 -0.143743 0.455844 -0.358852 -0.419381 -0.0311759
-0.147082 -0.114586 0.136053 -0.2434 -0.297969 -0.184688
-0.145708 -0.0951255 0.168969 -0.233557 -0.23087 -0.219826
-0.133964 -0.155108 0.451411 -0.368636 -0.459404 -0.00661334
-0.14105 -0.159729 0.281211 -0.326669 -0.46615 -0.0426455
-0.139265 -0.101271 0.323783 -0.28174 -0.261406 -0.163582
-0.145314 0.135872 0.177161 -0.0123557 0.587231 -0.741442
-0.147839 0.0120182 0.117189 -0.115793 0.151734 -0.476955
-0.143041 -0.0827574 0.232974 -0.239057 -0.190663 -0.230383
-0.143555 -0.00581005 0.220187 -0.161139 0.0827307 -0.408378
-0.143621 -0.157788 0.21943 -0.307936 -0.455777 -0.0639297
-0.144827 -0.127415 0.190302 -0.27061 -0.346497 -0.140771
-0.150309 -0.0843584 0.0583737 -0.192969 -0.186459 -0.274466
-0.146476 0.0469211 0.149736 -0.0909129 0.273575 -0.547214
-0.141501 -0.0712638 0.269887 -0.23801 -0.152023 -0.246361
-0.144861 0.0344803 0.188601 -0.11355 0.22729 -0.50838
-0.14091 -0.0967168 0.28422 -0.266541 -0.243029 -0.184722
-0.146734 -0.0541288 0.144084 -0.187113 -0.0841863 -0.319598
-0.137696 -0.0378335 0.361128 -0.230568 -0.0387215 -0.29724
-0.144503 -0.0709293 0.19778 -0.218014 -0.146758 -0.266824
-0.140271 -0.0326807 0.299235 -0.208697 -0.0169604 -0.325839
-0.137515 -0.0736016 0.365658 -0.266401 -0.165726 -0.214888
-0.137591 -0.060178 0.363767 -0.252901 -0.118051 -0.245846
-0.143591 -0.0216952 0.219412 -0.176293 0.0264837 -0.372566
-0.132509 -0.15113 0.486335 -0.374316 -0.447282 -0.00609205
-0.146902 0.0349824 0.139565 -0.0996856 0.231844 -0.522919
-0.146389 -0.0618723 0.152421 -0.196878 -0.112098 -0.299759
-0.137954 -0.0599525 0.35504 -0.250302 -0.116758 -0.248743
-0.147883 -0.0339924 0.11637 -0.160074 -0.0112629 -0.372837
-0.143697 0.0907221 0.216269 -0.066698 0.425024 -0.628364
-0.13599 -0.192159 0.402941 -0.39125 -0.587956 0.0641649
-0.140458 -0.159886 0.295438 -0.330703 -0.46751 -0.0384018
-0.143023 -0.00342743 0.232973 -0.162323 0.0904504 -0.410288
-0.142843 -0.130841 0.237973 -0.28693 -0.361335 -0.119974
-0.138177 -0.160114 0.350235 -0.345874 -0.471418 -0.0229104
-0.132206 -0.177608 0.493764 -0.401955 -0.541529 0.0559846
-0.149743 -0.121292 0.072169 -0.232457 -0.318118 -0.186938
-0.141289 -0.0608622 0.27493 -0.229325 -0.115449 -0.268572
-0.149265 -0.0557802 0.0833047 -0.172128 -0.0865995 -0.332463
-0.146014 0.119718 0.160442 -0.0234193 0.530934 -0.709377
-0.143165 -0.152903 0.230374 -0.306196 -0.439083 -0.0720192
-0.139309 -0.0614453 0.322508 -0.24287 -0.120207 -0.254247
-0.152531 -0.182947 0.00552627 -0.273912 -0.532829 -0.0653285
-0.144594 0.0783251 0.194775 -0.0728248 0.38231 -0.606124
-0.139123 -0.0816004 0.327081 -0.263613 -0.191888 -0.20729
-0.141302 -0.136221 0.275026 -0.302243 -0.382496 -0.0976473
-0.146096 0.0295409 0.158955 -0.110239 0.211465 -0.50528
-0.146876 -0.0415157 0.14062 -0.173968 -0.0392945 -0.349149
-0.143121 -0.187174 0.231607 -0.339683 -0.560597 0.0060386
-0.144651 -0.0547518 0.19413 -0.20137 -0.0892251 -0.304509
-0.147435 0.0406288 0.126732 -0.090723 0.252579 -0.539231
-0.140075 -0.174465 0.304706 -0.347333 -0.519696 -0.00280772
-0.147723 -0.0520461 0.120318 -0.178614 -0.0754615 -0.330816
-0.136031 -0.143609 0.401683 -0.343946 -0.415843 -0.0462803
-0.1391 -0.126068 0.327876 -0.306842 -0.349508 -0.106229
-0.147912 0.0191431 0.115403 -0.108414 0.177083 -0.493601
-0.145251 -0.0662032 0.179783 -0.208532 -0.128993 -0.28246
-0.137664 -0.141329 0.362441 -0.331034 -0.405543 -0.0621748
-0.144708 -0.109771 0.193053 -0.254294 -0.28413 -0.180032
-0.152358 -0.201453 0.00978716 -0.292974 -0.598646 -0.0221978
-0.131846 -0.18476 0.502459 -0.411245 -0.567367 0.0745809
-0.145332 0.081597 0.177033 -0.0648196 0.394908 -0.618392
-0.149689 -0.133071 0.0735324 -0.244222 -0.359935 -0.159853
-0.13314 -0.1403 0.471134 -0.359694 -0.408047 -0.0348046
-0.140714 0.0300646 0.288251 -0.145009 0.206006 -0.471135
-0.140764 -0.186818 0.288219 -0.354784 -0.562538 0.0207018
-0.141894 -0.155313 0.260902 -0.316857 -0.44935 -0.0582109
-0.146002 -9.06294e-05 0.161381 -0.139563 0.106325 -0.437419
-0.14284 -0.194731 0.238398 -0.348845 -0.587759 0.0250315
-0.152308 -0.18719 0.0109046 -0.279483 -0.548167 -0.0542377
-0.150445 -0.220612 0.0558565 -0.324075 -0.669145 0.0338407
-0.144787 -0.137246 0.191323 -0.280398 -0.381392 -0.118197
-0.138981 -0.0887182 0.330538 -0.271441 -0.217306 -0.190204
-0.150302 -0.173619 0.0590152 -0.279482 -0.502799 -0.0718663
-0.145486 0.0862382 0.1733 -0.0593118 0.411566 -0.629937
-0.145267 0.114211 0.178428 -0.0336535 0.510401 -0.691973
-0.139221 -0.0358957 0.324473 -0.218693 -0.0297808 -0.311652
-0.133802 -0.171609 0.455396 -0.385684 -0.518101 0.031895
-0.144101 0.0274451 0.206897 -0.125347 0.201326 -0.487426
-0.148393 -0.16195 0.104833 -0.280696 -0.464041 -0.0858079
-0.14909 -0.163752 0.0880966 -0.277873 -0.469481 -0.0862948
-0.139371 -0.16315 0.321566 -0.340988 -0.480554 -0.0238603
-0.144695 0.10787 0.192181 -0.0435395 0.487152 -0.673834
-0.136133 -0.088953 0.398955 -0.290335 -0.222009 -0.170975
-0.151677 -0.175607 0.0260115 -0.272401 -0.507978 -0.0763758
-0.146184 -0.180686 0.157998 -0.313324 -0.533441 -0.0287909
-0.138004 -0.161124 0.354394 -0.347985 -0.475232 -0.0194834
-0.15167 -0.142973 0.0259851 -0.240828 -0.392334 -0.15039
-0.153127 -0.224872 -0.00856472 -0.31062 -0.680595 0.0258968
-0.146761 -0.09988 0.143683 -0.231257 -0.246288 -0.215954
-0.142317 -0.141428 0.250679 -0.300637 -0.39957 -0.0924922
-0.152244 -0.211663 0.0125755 -0.303611 -0.634986 0.00171998
-0.146993 -0.0978269 0.138097 -0.227747 -0.238696 -0.222136
-0.142339 -0.166378 0.250285 -0.324663 -0.487961 -0.0360181
-0.147906 -0.0819725 0.116087 -0.206407 -0.181269 -0.264105
-0.150389 -0.152424 0.0568086 -0.258379 -0.427568 -0.120535
-0.143798 0.0664131 0.213968 -0.0895834 0.339013 -0.573865
-0.144776 -0.183234 0.19182 -0.325016 -0.544385 -0.0137689
-0.149044 -0.19951 0.0893966 -0.312815 -0.596266 -0.00484804
-0.151048 -0.16517 0.0410604 -0.266411 -0.471843 -0.0959337
-0.148515 -0.102671 0.101575 -0.222468 -0.253795 -0.221131
-0.131892 -0.166187 0.501257 -0.392952 -0.501485 0.0321335
-0.145863 0.0997832 0.16417 -0.0437191 0.46008 -0.66315
-0.149113 -0.0661088 0.0870118 -0.18313 -0.12341 -0.308026
-0.13851 -0.188777 0.342397 -0.37146 -0.572545 0.0399495
-0.146818 -0.0799816 0.142201 -0.211606 -0.175692 -0.261484
-0.146939 -0.197465 0.139953 -0.32463 -0.591879 0.00432996
-0.152002 -0.198573 0.0183309 -0.29252 -0.588926 -0.0263927
-0.141166 -0.107443 0.278145 -0.275258 -0.280695 -0.162058
-0.150136 -0.0595825 0.062384 -0.170098 -0.0988897 -0.329557
-0.147553 -0.213775 0.125281 -0.336403 -0.648845 0.0373081
-0.140224 0.150714 0.299387 -0.175413 0.567966 -0.476888
-0.144064 0.149504 0.207122 -0.0520552 0.583957 -0.697638
-0.141623 0.148958 0.265776 -0.131384 0.5887 -0.544772
-0.151172 -0.0843117 0.0376166 -0.173932 -0.0600464 -0.260475
-0.149129 0.00797769 0.0862083 -0.0989787 0.254318 -0.458058
-0.147945 0.0633763 0.114353 -0.0522351 0.456892 -0.574758
-0.147842 0.0784313 0.116725 -0.0305067 0.58343 -0.596662
-0.148086 0.0686239 0.110908 -0.0373546 0.558873 -0.574451
-0.151592 -0.0580732 0.027386 -0.134394 0.201835 -0.218146
-0.151147 -0.00968696 0.0378032 -0.0815739 0.488788 -0.264997
-0.14961 0.07362 0.0742697 -0.0021531 0.866811 -0.427513
-0.150614 0.0332795 0.050387 -0.0367424 0.722728 -0.321324
-0.150205 0.0660756 0.0600289 -0.00254566 0.901062 -0.364481
-0.150537 -0.00422524 0.0524362 -0.0839774 0.436922 -0.329726
-0.148317 0.0717755 0.105339 -0.023728 0.658858 -0.564713
-0.149737 0.0231196 0.0715016 -0.0623191 0.516579 -0.414411
-0.148736 0.0687718 0.0952993 -0.0211676 0.699856 -0.520316
-0.149355 0.0653673 0.0804345 -0.0160989 0.768146 -0.454599
-0.149305 0.04606 0.0817465 -0.0405751 0.619405 -0.46006
-0.153149 -0.172624 -0.0093888 -0.251912 -0.401663 -0.0537277
-0.151875 0.0438607 0.0200244 -0.0188305 0.855252 -0.217007
-0.152235 -0.0256168 0.0117524 -0.09351 0.452768 -0.167955
-0.152228 -0.0639998 0.0121419 -0.135616 0.220945 -0.158014
-0.152882 0.0559221 -0.00425782 -0.00146095 0.974234 -0.136547
-0.152404 -0.0949262 0.0080934 -0.168796 0.0424878 -0.134912
-0.152882 0.00842352 -0.00397277 -0.0535334 0.687731 -0.123563
-0.152996 0.0427814 -0.00691425 -0.0153985 0.900195 -0.123492
-0.151913 -0.0550479 0.0196683 -0.127101 0.260467 -0.186686
-0.152217 -0.0876901 0.012529 -0.16163 0.0775816 -0.152386
-0.152319 0.0318368 0.00941914 -0.0301833 0.803115 -0.17678
-0.152479 -0.0228436 0.00586806 -0.0894647 0.4807 -0.148413
-0.153659 -0.199171 -0.0214833 -0.277905 -0.528624 -0.0019292
-0.151254 0.0538799 0.0348803 -0.0104012 0.887204 -0.27135
-0.152374 0.0510334 0.00797879 -0.00891123 0.921436 -0.177443
-0.151783 -0.015529 0.0225645 -0.0843131 0.492854 -0.208328
-0.152434 -0.0453188 0.00708544 -0.11429 0.343067 -0.146015
-0.150747 0.0634424 0.0470068 -0.00200481 0.921617 -0.316115
-0.152888 -0.0289237 -0.00392424 -0.0944469 0.462794 -0.112747
-0.151583 -0.0112283 0.0273448 -0.0804214 0.509618 -0.226131
-0.152204 -0.0842801 0.0128339 -0.157947 0.0975288 -0.154444
-0.153554 -0.0152319 -0.0200097 -0.211524 0.42797 -0.0129914
-0.153869 -0.0749489 -0.0272386 -0.352969 -0.00255261 0.0571682
-0.15362 -0.105467 -0.0210858 -0.20383 0.0034835 -0.0206934
-0.153726 0.0476242 -0.0244896 -0.334474 0.603611 0.0527643
-0.15343 0.0388086 -0.0173171 -0.170076 0.729208 -0.0320317
-0.153735 -0.13239 -0.0236989 -0.253074 -0.175786 0.00347787
-0.153298 -0.00303083 -0.0139073 -0.0786166 0.622115 -0.0807413
-0.153293 0.0329285 -0.0139967 -0.0933356 0.779379 -0.0716875
-0.153659 -0.171501 -0.449586 -0.0690383 -0.289651 -0.60454
-0.153583 0.110847 -0.471776 -0.0585996 -0.0419929 -0.886475
-0.153639 -0.0756473 -0.446203 -0.0859191 -0.197636 -0.675877
-0.153693 0.107072 -0.28544 -0.406821 0.089982 -0.46726
-0.153674 -0.0141467 -0.363812 -0.246842 -0.0802632 -0.542507
-0.153739 0.0372488 -0.233859 -0.495645 0.0622559 -0.294605
-0.153741 0.0234051 -0.23625 -0.489648 0.0475833 -0.288551
-0.153662 -0.0291104 -0.390661 -0.194961 -0.113768 -0.590148
-0.153655 -0.0793022 -0.42158 -0.131586 -0.183145 -0.617884
-0.153595 0.126614 -0.444588 -0.111203 -0.00749113 -0.83874
-0.153718 0.0770694 -0.253508 -0.463264 0.0851711 -0.371258
-0.153667 -0.11176 -0.412837 -0.144372 -0.207113 -0.571645
-0.153704 0.0593702 -0.285465 -0.401524 0.0453963 -0.428054
-0.153662 -0.186781 -0.451054 -0.0646103 -0.304994 -0.595242
-0.153796 0.0258267 -0.14082 -0.668465 0.119241 -0.0774376
-0.153757 0.066682 -0.19258 -0.576119 0.119773 -0.226649
-0.153609 0.124569 -0.420964 -0.155179 0.00777719 -0.784302
-0.153583 0.119082 -0.467631 -0.0672614 -0.0312845 -0.883997
-0.153729 0.0377716 -0.249954 -0.465587 0.0510397 -0.330979
-0.15372 0.0259084 -0.270459 -0.425917 0.0250454 -0.367005
-0.153642 -0.110793 -0.455272 -0.0650811 -0.237067 -0.667204
-0.153752 0.0335594 -0.213949 -0.53249 0.073287 -0.247108
-0.153784 0.0283698 -0.161497 -0.630058 0.106581 -0.125705
-0.153655 0.00607389 -0.388364 -0.203131 -0.0792252 -0.613976
-0.153698 0.0426791 -0.300924 -0.370762 0.0185599 -0.44884
-0.153652 0.0848904 -0.363669 -0.258011 0.0123701 -0.623698
-0.153682 0.0938976 -0.308983 -0.361322 0.0605526 -0.508991
-0.153782 0.0404037 -0.159874 -0.634418 0.119004 -0.131986
-0.153647 -0.126387 -0.451842 -0.0697818 -0.249143 -0.64671
-0.153743 -0.00562732 -0.243477 -0.47293 0.015203 -0.280795
-0.153706 0.013823 -0.299469 -0.370309 -0.0073415 -0.42184
-0.153638 -0.126843 -0.467846 -0.0397886 -0.261206 -0.682074
-0.153709 -0.100404 -0.338162 -0.285339 -0.1422 -0.414234
-0.15369 0.0447431 -0.314275 -0.34601 0.0107802 -0.480351
-0.153763 0.0735917 -0.179121 -0.60206 0.136015 -0.202281
-0.153666 -0.0413721 -0.387828 -0.198911 -0.123164 -0.57373
-0.153675 0.117663 -0.311621 -0.359002 0.0808385 -0.534441
-0.153677 0.0442566 -0.337065 -0.303316 -0.00624704 -0.530844
-0.153698 0.113042 -0.274801 -0.427384 0.103296 -0.448415
-0.153806 0.0489612 -0.116133 -0.717202 0.158808 -0.0413486
-0.153648 -0.173021 -0.469162 -0.032244 -0.305306 -0.647005
-0.153718 -0.090081 -0.318559 -0.323155 -0.1183 -0.378953
-0.153753 0.0417693 -0.208281 -0.543999 0.085079 -0.241208
-0.153664 0.0142088 -0.370101 -0.238198 -0.0583438 -0.579887
-0.153728 0.0302653 -0.255776 -0.453869 0.0397935 -0.3378
-0.153606 0.0965022 -0.437092 -0.121914 -0.0301733 -0.797216
-0.153673 -0.0512242 -0.379533 -0.213347 -0.126336 -0.547097
-0.153754 0.0724071 -0.194935 -0.572342 0.123409 -0.23662
-0.153716 -0.050121 -0.30692 -0.349328 -0.0725022 -0.385852
-0.15377 -0.0228341 -0.204175 -0.54457 0.0277068 -0.178868
-0.153738 0.0972904 -0.212865 -0.541533 0.133618 -0.29714
-0.153742 -0.0242629 -0.25199 -0.45495 -0.00839861 -0.284468
-0.153765 0.0170928 -0.197639 -0.561195 0.0697631 -0.197132
-0.153631 -0.0911042 -0.466376 -0.0464725 -0.226747 -0.708205
-0.153629 -0.0324534 -0.446728 -0.0896908 -0.157662 -0.7126
-0.153666 -0.127198 -0.420852 -0.127676 -0.227365 -0.576838
-0.153652 -0.0315971 -0.408017 -0.162213 -0.128712 -0.626859
-0.153596 0.0317706 -0.479098 -0.0361956 -0.121197 -0.837744
-0.153677 -0.0229795 -0.362319 -0.248663 -0.0874299 -0.531903
-0.153665 -0.111449 -0.416518 -0.137518 -0.209499 -0.580122
-0.15367 0.0271477 -0.354901 -0.268061 -0.0352019 -0.556593
-0.153674 0.0318973 -0.346859 -0.283631 -0.0249163 -0.542543
-0.153735 0.0587807 -0.232757 -0.500076 0.0831741 -0.309866
-0.15372 -0.0543449 -0.300464 -0.360943 -0.071754 -0.367959
-0.153748 0.0649632 -0.207821 -0.547412 0.107083 -0.259271
-0.153578 0.104812 -0.48172 -0.0393296 -0.0548623 -0.903715
-0.153731 0.0759647 -0.232975 -0.50156 0.0990704 -0.324496
-0.153679 -0.00391599 -0.351359 -0.271269 -0.0616485 -0.523116
-0.153752 -0.0107303 -0.229686 -0.498171 0.0204638 -0.245799
-0.153677 0.0720783 -0.32605 -0.326988 0.0277563 -0.529145
-0.153579 0.152694 -0.461358 -0.0826977 0.00468041 -0.897653
-0.153808 0.0439698 -0.113694 -0.721215 0.155918 -0.0317952
-0.153774 0.0852827 -0.156721 -0.645258 0.163227 -0.161882
-0.153671 -0.101009 -0.401903 -0.166014 -0.189117 -0.556076
-0.153686 -0.135812 -0.389223 -0.185907 -0.212412 -0.499116
-0.15365 0.00130331 -0.398826 -0.183031 -0.0912903 -0.633413
-0.153705 0.0158276 -0.299793 -0.369922 -0.0057047 -0.424215
-0.153792 0.0156419 -0.152733 -0.645054 0.101063 -0.0956584
-0.153609 0.113028 -0.426557 -0.143444 -0.00707274 -0.787293
-0.153668 -0.167562 -0.432747 -0.100977 -0.273726 -0.57018
-0.153726 0.014615 -0.264801 -0.435259 0.0186081 -0.345076
-0.1537 0.0661461 -0.28987 -0.394028 0.0485236 -0.443468
-0.153639 -0.0503139 -0.437076 -0.105784 -0.16733 -0.676346
-0.153732 0.0670785 -0.234703 -0.497348 0.0895113 -0.321042
-0.153733 0.000242998 -0.25846 -0.445542 0.00979195 -0.319086
-0.153658 -0.21156 -0.465962 -0.0339885 -0.338986 -0.608141
-0.153653 0.0309223 -0.382621 -0.216611 -0.0518335 -0.621603
-0.153733 0.00781625 -0.255861 -0.451239 0.0187578 -0.319514
-0.153695 0.0627966 -0.298314 -0.377861 0.0392539 -0.459568
-0.153685 0.0365615 -0.326041 -0.323094 -0.00542054 -0.499894
-0.153704 -0.0677792 -0.332964 -0.298656 -0.107939 -0.429478
-0.153668 0.0204955 -0.36156 -0.254869 -0.0462596 -0.565989
-0.153655 0.0364248 -0.376521 -0.228631 -0.0422561 -0.612508
-0.153711 -0.0613235 -0.319521 -0.324519 -0.0921319 -0.404771
-0.153609 0.00664997 -0.465905 -0.0581149 -0.135074 -0.787607
-0.153611 0.0195028 -0.457489 -0.0752764 -0.116945 -0.779391
-0.153649 -0.049876 -0.420424 -0.136988 -0.154812 -0.639521
-0.153707 -0.00901936 -0.306331 -0.354954 -0.0336733 -0.418365
-0.153622 0.122737 -0.400742 -0.192813 0.0207706 -0.737636
-0.153617 0.137901 -0.402259 -0.191645 0.0338356 -0.753502
-0.153686 0.106072 -0.29754 -0.384072 0.0802485 -0.493457
-0.153794 0.0738518 -0.126307 -0.700904 0.174664 -0.0845561
-0.153664 -0.179029 -0.443764 -0.079103 -0.29245 -0.585344
-0.153717 0.0427413 -0.269097 -0.430318 0.0417627 -0.377817
-0.153686 -0.113934 -0.38186 -0.202091 -0.186618 -0.50068
-0.153646 -0.0387833 -0.420524 -0.138022 -0.144521 -0.648874
-0.153665 0.000482467 -0.372933 -0.231388 -0.0732277 -0.574914
-0.153641 0.022543 -0.405596 -0.172703 -0.0763689 -0.666011
-0.15374 0.0454157 -0.229834 -0.504075 0.0728131 -0.292338
-0.153692 0.0503296 -0.307962 -0.358437 0.0205901 -0.470852
-0.15376 -0.00869003 -0.215977 -0.524045 0.0323391 -0.216864
-0.153707 -0.0162584 -0.308131 -0.350791 -0.0417452 -0.416426
-0.153637 -0.0715461 -0.449065 -0.0810157 -0.195885 -0.685643
-0.153686 -0.170316 -0.403831 -0.154776 -0.255272 -0.503341
-0.153699 -0.0175547 -0.322661 -0.323463 -0.0535221 -0.447805
-0.15366 -0.156725 -0.441501 -0.085792 -0.269966 -0.598647
-0.153635 0.018008 -0.418742 -0.147607 -0.0901657 -0.691636
-0.153627 -0.0206581 -0.445576 -0.0931446 -0.145804 -0.719735
-0.153725 0.0402686 -0.256737 -0.453172 0.0484405 -0.34818
-0.153691 0.0835581 -0.298296 -0.380179 0.0586642 -0.476615
-0.15376 -0.0291346 -0.222708 -0.509202 0.00834359 -0.215068
-0.153643 -0.053512 -0.432361 -0.114254 -0.166889 -0.663184
-0.153745 0.093368 -0.20141 -0.562534 0.138284 -0.268331
-0.15364 0.00135892 -0.415872 -0.151144 -0.103634 -0.671524
-0.153714 0.0429198 -0.274016 -0.421133 0.0383519 -0.38895
-0.153763 0.0524743 -0.187194 -0.584631 0.110415 -0.202929
-0.153656 -0.0240556 -0.398301 -0.181223 -0.114601 -0.611368
-0.153764 0.0406463 -0.19024 -0.57763 0.0971491 -0.199996
-0.153862 -0.00954073 -0.0446275 -0.517488 0.13443 0.0552766
-0.153853 0.0287604 -0.0435276 -0.522481 0.313392 0.0652118
-0.153865 -0.04167 -0.0509471 -0.555221 -0.0611796 0.0401159
-0.153877 -0.0763771 -0.0448328 -0.495462 -0.163417 0.0401079
-0.153828 0.0636057 -0.0730034 -0.763752 0.21935 0.0357004
-0.153868 -0.035669 -0.0441007 -0.504162 0.0231094 0.0501146
-0.15384 0.0397008 -0.0612699 -0.664162 0.212331 0.0452099
-0.153886 -0.0881182 -0.035251 -0.416884 -0.134679 0.049609
-0.153854 0.0379474 -0.0377617 -0.480941 0.40269 0.0745543
-0.153914 -0.200669 -0.0320842 -0.352509 -0.606641 0.0285081
-0.153706 0.111695 -0.261506 -0.444244 0.119081 -0.409931
-0.153659 0.131184 -0.333958 -0.222798 0.167153 -0.501753
-0.153705 0.117679 -0.261389 -0.193807 0.36042 -0.169047
-0.153704 0.113411 -0.263783 -0.391274 0.164882 -0.368652
-0.153596 0.153458 -0.432939 -0.101699 0.0581794 -0.801353
-0.153677 0.122637 -0.306144 -0.352199 0.10597 -0.50911
-0.153648 0.133467 -0.351657 -0.272022 0.0794418 -0.623357
-0.153792 0.0827926 -0.127388 -0.555015 0.318062 0.0472002
-0.153756 0.106277 -0.181096 -0.0141003 0.716367 0.340779
-0.153678 0.148241 -0.296411 -0.0170881 0.427248 0.0524345
-0.153699 0.132165 -0.266392 -0.0149196 0.510103 0.0758381
-0.153746 0.118651 -0.193474 -0.00581214 0.684379 0.396407
-0.153773 0.10155 -0.154049 -0.00236092 0.788955 0.468572
-0.153747 0.118094 -0.191482 -0.00559159 0.689338 0.403224
-0.153763 0.120875 -0.162349 -0.000722805 0.750322 0.615782
-0.153645 0.150272 -0.351522 -0.0252019 0.304181 -0.27436
-0.153719 0.146185 -0.226605 -0.00673302 0.582588 0.471701
-0.153714 0.123047 -0.244964 -0.0130172 0.566757 0.116884
-0.153707 0.159301 -0.242139 -0.169728 0.365246 0.379309
-0.153605 0.164567 -0.412402 -0.104592 0.080232 -0.568582
-0.153706 0.159342 -0.243026 -0.169618 0.363503 0.374324
-0.114449 -0.155186 0.731442 -0.408919 -0.574468 0.0929658
-0.0829285 0.0069152 1.12448 -0.652109 -0.182757 0.093366
-0.110887 -0.140679 0.775863 -0.426407 -0.544844 0.0934818
-0.0889865 -0.127972 1.04918 -0.333344 -0.65657 0.106106
-0.0745288 0.0833148 1.22914 -0.803983 0.049187 0.0893705
-0.0958554 -0.118222 0.963424 -0.398552 -0.568759 0.100449
-0.0862793 -0.116427 1.08294 -0.347996 -0.632063 0.106434
-0.0976763 -0.0646178 0.940574 -0.54963 -0.349468 0.0926461
-0.0895481 -0.105534 1.04212 -0.395425 -0.56625 0.102969
-0.112404 -0.118613 0.756879 -0.493026 -0.448949 0.0897723
-0.0802376 0.0274626 1.15802 -0.690462 -0.123543 0.0925714
-0.0765684 0.00154429 1.20387 -0.60132 -0.250016 0.0981516
-0.0839769 -0.122443 1.11169 -0.318933 -0.672054 0.108669
-0.105421 -0.122183 0.844039 -0.443369 -0.51385 0.0947388
-0.102205 -0.103498 0.884136 -0.473807 -0.465643 0.0945147
-0.0865752 0.00696663 1.07896 -0.673288 -0.155827 0.0909962
-0.0897167 -0.11389 1.04003 -0.374485 -0.597118 0.103893
-0.116293 -0.132944 0.70838 -0.477886 -0.475499 0.0890228
-0.0911381 -0.071161 1.02219 -0.49474 -0.422536 0.097692
-0.0703072 -0.0137569 1.28205 -0.525062 -0.354701 0.1041
-0.0869695 -0.00748923 1.07407 -0.637655 -0.208474 0.0925268
-0.0899464 -0.123587 1.03719 -0.350382 -0.632689 0.104942
-0.0725556 0.00564071 1.25395 -0.588906 -0.263694 0.100246
-0.0710667 -0.0105864 1.27257 -0.537759 -0.336953 0.103216
-0.124306 -0.155035 0.608414 -0.466199 -0.501628 0.0865587
-0.0979693 -0.0783576 0.936949 -0.51529 -0.400107 0.0941538
-0.0976516 -0.0792686 0.940916 -0.511068 -0.405936 0.0944723
-0.0743696 -0.0344039 1.2314 -0.494362 -0.404244 0.104018
-0.100086 -0.130443 0.910653 -0.390916 -0.584699 0.0992175
-0.090295 -0.060267 1.03269 -0.518443 -0.386863 0.0968924
-0.0924864 -0.0808635 1.00539 -0.477077 -0.449928 0.0980169
-0.0748985 0.0133002 1.22469 -0.622512 -0.217092 0.0977814
-0.102614 -0.0762803 0.878974 -0.547541 -0.358078 0.090887
-0.073326 0.0416676 1.24425 -0.687827 -0.119635 0.0952957
-0.102492 -0.139833 0.880644 -0.380177 -0.603137 0.0988183
-0.083572 -0.0547456 1.11659 -0.494124 -0.414935 0.100567
-0.0728654 0.0325362 1.25002 -0.661223 -0.158094 0.0967224
-0.0865533 -0.0844818 1.07945 -0.43335 -0.507323 0.102309
-0.0826197 -0.0375219 1.12843 -0.533796 -0.355744 0.0990565
-0.0831092 -0.0534924 1.12236 -0.49474 -0.413513 0.100713
-0.0961775 -0.110112 0.959385 -0.421677 -0.53524 0.0992385
-0.094831 -0.122494 0.976219 -0.381437 -0.592681 0.101641
-0.0947079 -0.0103594 0.977499 -0.674785 -0.162774 0.0878662
-0.0704226 0.0536739 1.28046 -0.702557 -0.094792 0.0956939
-0.0932833 -0.0774398 0.995434 -0.490654 -0.430933 0.0970775
-0.0800883 -0.0537634 1.16007 -0.476596 -0.4367 0.102704
-0.0728952 -0.0670272 1.24987 -0.400303 -0.540388 0.109004
-0.0745293 0.0542781 1.2292 -0.727841 -0.0623659 0.0929578
-0.0717236 0.0474867 1.26423 -0.69384 -0.109025 0.0956152
-0.087914 -0.0765547 1.06245 -0.46199 -0.466894 0.100448
-0.0980431 -0.0701784 0.936009 -0.537165 -0.368143 0.0930955
-0.112648 -0.137566 0.75388 -0.444733 -0.519974 0.091956
-0.098904 -0.0995852 0.925331 -0.465017 -0.47481 0.0961708
-0.0876074 -0.1243 1.06638 -0.335015 -0.652573 0.106546
-0.0715454 -0.108001 1.26682 -0.285064 -0.707702 0.114942
-0.0935288 -0.122538 0.992472 -0.373806 -0.602397 0.10249
-0.0959238 -0.121687 0.962579 -0.38986 -0.58157 0.100833
-0.13034 -0.185728 0.53317 -0.420536 -0.575309 0.08644
-0.10097 -0.101877 0.899553 -0.470928 -0.468471 0.0951151
-0.103184 -0.0862414 0.871881 -0.52471 -0.392168 0.0917482
-0.110121 -0.124218 0.785384 -0.465156 -0.487214 0.0919443
-0.091045 -0.0791501 1.02337 -0.473252 -0.453912 0.0987394
-0.073447 -0.0445336 1.24293 -0.462474 -0.449924 0.105868
-0.0719328 -0.0950186 1.26195 -0.321345 -0.654983 0.113087
-0.114581 -0.13417 0.729747 -0.464792 -0.492759 0.0902837
-0.0941862 -0.110966 0.984241 -0.407947 -0.553118 0.100635
-0.1119 -0.123822 0.763187 -0.476456 -0.472658 0.0907428
-0.0737657 0.0941306 1.23864 -0.827943 0.0851461 0.0885287
-0.0958811 -0.0174482 0.962873 -0.662966 -0.181408 0.0879817
-0.100073 -0.10691 0.910763 -0.452553 -0.494383 0.0963184
-0.108557 -0.129115 0.804921 -0.443285 -0.517497 0.0935632
-0.121713 -0.165219 0.640806 -0.424528 -0.559763 0.0894977
-0.0979099 -0.125321 0.937798 -0.391791 -0.580972 0.0999948
-0.0706228 0.0898858 1.27788 -0.798674 0.0457984 0.0910901
-0.0902284 -0.0852806 1.03358 -0.452463 -0.483451 0.100026
-0.0877613 -0.0642776 1.06432 -0.493304 -0.420845 0.09903
-0.0836273 -0.0122592 1.1158 -0.605859 -0.251301 0.0952822
-0.0813043 -0.00258994 1.14477 -0.617809 -0.231182 0.0955931
-0.104118 -0.0816674 0.860213 -0.542094 -0.367748 0.0905777
-0.102108 -0.138092 0.885428 -0.382529 -0.59926 0.0988518
-0.0984483 -0.055368 0.930918 -0.578342 -0.308272 0.091003
-0.0739624 0.0703738 1.23624 -0.766778 -0.00468333 0.0913365
-0.0941285 -0.120311 0.984983 -0.383108 -0.589443 0.101827
-0.0724271 -0.0668634 1.25572 -0.398031 -0.54319 0.109288
-0.0722124 0.0743783 1.25807 -0.767181 -0.00212702 0.0919759
-0.0790781 0.0441388 1.17245 -0.727503 -0.0679739 0.0912624
-0.0796727 -0.0188009 1.16517 -0.565883 -0.305423 0.0986534
-0.114355 -0.116183 0.732522 -0.510658 -0.42531 0.0882076
-0.109044 -0.157452 0.798911 -0.371784 -0.622797 0.0967489
-0.0728838 0.0860626 1.24966 -0.801696 0.0476847 0.0900971
-0.0884833 0.00461691 1.05515 -0.678138 -0.150866 0.0900499
-0.0847713 -0.0386862 1.10158 -0.543159 -0.344445 0.097806
-0.0905954 -0.130038 1.0291 -0.33721 -0.652715 0.105318
-0.102939 -0.099094 0.874969 -0.489591 -0.443343 0.093495
-0.0698568 0.0819756 1.28745 -0.77351 0.00979299 0.0925638
-0.094238 -0.0378905 0.983426 -0.599877 -0.27199 0.0915722
-0.0799289 -0.0461944 1.16204 -0.495525 -0.408789 0.101872
-0.124376 -0.157717 0.607547 -0.459569 -0.51142 0.0868448
-0.0703788 0.0990442 1.2809 -0.821283 0.0791954 0.0901166
-0.0763595 -0.101993 1.20672 -0.328602 -0.649326 0.111079
-0.0981082 -0.0483937 0.935147 -0.594668 -0.283971 0.0903617
-0.0813921 -0.0286254 1.14374 -0.550042 -0.330563 0.0987529
-0.0861279 0.0133518 1.08453 -0.687451 -0.134575 0.0904973
-0.0759164 -0.0206737 1.21206 -0.539294 -0.340155 0.101319
-0.103936 -0.134046 0.86261 -0.403685 -0.57032 0.0971676
-0.0820134 -0.0925499 1.13613 -0.385992 -0.571601 0.106248
-0.0949233 -0.0450934 0.974889 -0.584943 -0.294639 0.092018
-0.0814536 -0.0414823 1.143 -0.51668 -0.379508 0.100302
-0.0736636 -0.082345 1.24032 -0.364568 -0.593605 0.110399
-0.0780326 0.0722798 1.18543 -0.795265 0.0324766 0.0884631
-0.102207 -0.0522792 0.883994 -0.608135 -0.268849 0.0881851
-0.0968317 -0.0387326 0.951056 -0.612637 -0.256211 0.0899953
-0.0822594 0.00447974 1.13284 -0.64186 -0.197019 0.0941006
-0.109617 -0.13872 0.791715 -0.424212 -0.546631 0.0940631
-0.0770922 0.0106803 1.19731 -0.628301 -0.211076 0.0966834
-0.109406 -0.103407 0.794259 -0.515604 -0.412502 0.0898363
-0.0750412 -0.0638592 1.22308 -0.420995 -0.512485 0.107222
-0.104601 -0.127579 0.854288 -0.424485 -0.540595 0.0959372
-0.0797886 0.0574454 1.16355 -0.766498 -0.011643 0.0891579
-0.078373 -0.0091097 1.18137 -0.583796 -0.277718 0.0982984
-0.0814507 -0.0789723 1.14312 -0.418351 -0.523562 0.104936
-0.100818 -0.0589991 0.901346 -0.582497 -0.304848 0.0899156
-0.0946026 -0.0475854 0.978898 -0.576557 -0.306564 0.0925338
-0.118014 -0.168074 0.68698 -0.395693 -0.597851 0.0922479
-0.103383 -0.101899 0.869437 -0.484796 -0.450866 0.093554
-0.0712991 -0.0349628 1.26972 -0.475177 -0.4289 0.106077
-0.108271 -0.138544 0.808514 -0.416908 -0.555819 0.0949137
-0.112276 -0.13269 0.758515 -0.45537 -0.503971 0.0915948
-0.0870051 -0.056341 1.07374 -0.509753 -0.395897 0.0985395
-0.0901513 -0.116459 1.03461 -0.370256 -0.603803 0.103928
-0.0807747 0.0211674 1.15133 -0.677054 -0.143791 0.093001
-0.0801185 0.0324172 1.15949 -0.702768 -0.10538 0.0920364
-0.0306455 0.116637 1.26086 -0.479836 0.336657 0.0831203
-0.0239242 0.131743 0.968361 -0.0671157 0.618989 0.0688637
-0.0323203 0.116392 1.26563 -0.500418 0.325004 0.083518
-0.115651 0.148015 0.654679 -0.499843 0.476345 0.0640135
-0.00961952 0.123662 1.12458 -0.129218 0.548766 0.0745897
-0.055009 0.119946 1.19715 -0.618454 0.281871 0.0827402
-0.0446452 0.116111 1.27124 -0.616236 0.264682 0.0850782
-0.0389107 0.121944 1.15826 -0.429053 0.387865 0.0792403
-0.0546245 0.133784 0.929275 -0.291537 0.514454 0.0702927
-0.030518 0.129825 1.00558 -0.170401 0.557231 0.0712831
-0.0647266 0.140836 0.792913 -0.21623 0.586488 0.0650428
0.0207279 0.122914 1.13862 0.122325 0.673294 0.0720381
-0.103786 0.144822 0.716315 -0.469308 0.476644 0.0656164
-0.102993 0.138109 0.846246 -0.619213 0.36824 0.0715507
-0.00661899 0.118962 1.21552 -0.212507 0.483898 0.0784854
-0.0508823 0.128981 1.02219 -0.370644 0.451227 0.0742014
-0.0701514 0.132809 0.948379 -0.451986 0.428084 0.0728158
-0.0567621 0.126391 1.07243 -0.483337 0.381462 0.0771485
-0.0338585 0.131346 0.976184 -0.16446 0.56752 0.0702742
0.0469002 0.116448 1.26341 0.203177 0.683584 0.0750564
-0.0797975 0.138569 0.837005 -0.402822 0.480637 0.0686751
-0.0338651 0.121912 1.15879 -0.385051 0.410125 0.0787325
-0.0921421 0.129902 1.00496 -0.714885 0.280317 0.0777568
-0.0692745 0.118015 1.23474 -0.79007 0.185248 0.0859865
-0.0855352 0.136909 0.869228 -0.492504 0.427035 0.070773
-0.0762267 0.134967 0.906686 -0.455385 0.436663 0.0715258
-0.0916209 0.140091 0.807723 -0.472067 0.452641 0.0685664
-0.0370647 0.117921 1.23609 -0.506716 0.329103 0.0826503
-0.0834043 0.130615 0.991041 -0.620767 0.33165 0.0761902
-0.0553201 0.132875 0.946877 -0.318949 0.496153 0.0711813
-0.077737 0.137266 0.862212 -0.415034 0.468191 0.0696252
-0.0598706 0.138466 0.83872 -0.228587 0.568875 0.066652
-0.0658408 0.136589 0.875145 -0.325402 0.510604 0.0689691
-0.113186 0.150661 0.603416 -0.416123 0.53162 0.0613791
-0.0699842 0.11792 1.23658 -0.798567 0.18047 0.0861465
0.0133785 0.118499 1.2242 -0.0460571 0.566452 0.0767773
-0.0178014 0.122182 1.15334 -0.236346 0.487141 0.0767852
-0.0843287 0.142081 0.769098 -0.3609 0.518759 0.066008
-0.0772493 0.142707 0.756871 -0.283498 0.561169 0.0646948
-0.0390509 0.125635 1.0868 -0.343999 0.448811 0.0759457
-0.0865678 0.134121 0.923212 -0.566838 0.375863 0.0733823
0.0176256 0.119515 1.20446 0.0153644 0.602589 0.0754147
-0.121216 0.150653 0.603693 -0.487501 0.495231 0.0622391
0.0194358 0.120829 1.17899 0.0621332 0.632683 0.0740443
-4.19852e-06 0.119902 1.19722 -0.131879 0.529452 0.0769398
-0.0155446 0.130197 0.998161 -0.0289658 0.631035 0.0693597
-0.00272007 0.124357 1.11103 -0.0518132 0.591503 0.0732343
-0.108566 0.145705 0.699282 -0.491025 0.469804 0.0653318
-0.0277268 0.117975 1.23492 -0.422689 0.372149 0.081611
-0.0625632 0.124546 1.10822 -0.57789 0.324499 0.0794184
-0.0785316 0.128057 1.04048 -0.637362 0.310983 0.0779658
-0.0217224 0.126909 1.0619 -0.160608 0.548288 0.0729639
-0.0109413 0.115413 1.28428 -0.333792 0.405182 0.0821262
-0.0318504 0.124666 1.10546 -0.302823 0.465151 0.07605
-0.106253 0.143625 0.73952 -0.519162 0.445539 0.0669515
-0.0655383 0.122115 1.15532 -0.661099 0.270511 0.081914
-0.0420439 0.12071 1.18218 -0.485665 0.353143 0.0806789
0.0467086 0.117429 1.24443 0.224408 0.699081 0.0741973
-0.0513638 0.115575 1.28171 -0.688335 0.225403 0.0862724
-0.0592303 0.12205 1.15649 -0.606696 0.297906 0.0813024
-0.085281 0.133925 0.926978 -0.560001 0.378411 0.073421
0.00977014 0.124522 1.10766 0.0627701 0.650644 0.0717601
-0.0703606 0.128998 1.02215 -0.542935 0.363564 0.0762548
-0.0659457 0.115778 1.27798 -0.812842 0.162969 0.0876381
-0.00799459 0.117206 1.24952 -0.265738 0.448405 0.0802052
-0.109652 0.142545 0.760472 -0.574531 0.412183 0.0682804
-0.0455914 0.135584 0.894312 -0.16939 0.585253 0.0677202
-0.0683094 0.120231 1.19183 -0.729705 0.226575 0.0838971
-0.0516518 0.135771 0.890771 -0.218734 0.56102 0.0681956
-0.0607106 0.115482 1.28364 -0.773363 0.181659 0.087348
-0.0780355 0.132952 0.945715 -0.518524 0.394884 0.0735243
-0.0671096 0.126099 1.07821 -0.581872 0.329891 0.0785082
-0.0870598 0.140732 0.795251 -0.416651 0.483924 0.0675075
-0.021162 0.130338 0.995503 -0.0754573 0.608034 0.0698294
-0.00784286 0.128745 1.02617 0.00535438 0.641575 0.0698442
0.0049764 0.124877 1.10086 0.0285691 0.634922 0.071951
0.0232845 0.11799 1.23391 0.0298586 0.602682 0.0761819
-0.0776861 0.140728 0.795188 -0.333638 0.526181 0.0665155
0.0916403 0.0493663 0.889992 0.229363 0.441439 0.070727
0.0979022 0.107556 0.813496 0.152743 0.724063 0.0632427
0.0963717 0.129238 0.832485 0.137666 0.825054 0.0616945
0.120224 0.050093 0.538644 0.129009 0.476794 0.0614814
0.102319 -0.0794247 0.75768 0.313385 -0.156692 0.0794138
0.0770245 0.124611 1.07027 0.209486 0.781538 0.0683415
0.120324 0.150684 0.538231 0.0339532 0.953379 0.0519867
0.0962594 0.0866798 0.833519 0.178126 0.623341 0.0657339
0.0978713 -0.0588652 0.812515 0.309536 -0.0642722 0.0789076
0.0916059 0.0931111 0.890773 0.188298 0.648609 0.0666231
0.120114 0.00498436 0.539624 0.171861 0.263002 0.0657599
0.0862223 0.0187093 0.956341 0.27712 0.290174 0.0753505
0.112084 0.111104 0.639202 0.0999522 0.756699 0.0583557
0.118374 -0.146176 0.559771 0.320244 -0.454951 0.0805379
0.081908 0.0652085 1.00975 0.248385 0.505613 0.0723616
0.105036 0.0378018 0.725238 0.193542 0.401616 0.067514
0.0984935 0.0838532 0.806034 0.172997 0.612446 0.0652825
0.106315 -0.0375438 0.7089 0.260019 0.0461495 0.074191
0.0853607 0.119596 0.967758 0.185139 0.767091 0.0661368
0.113527 0.0174202 0.620699 0.183123 0.314553 0.0667051
0.0976162 0.0472349 0.816518 0.210532 0.438014 0.0690088
0.0971657 0.101159 0.822496 0.161333 0.69294 0.0640809
0.106098 0.143765 0.71304 0.0900717 0.904726 0.0572049
0.0913868 0.052123 0.893131 0.227652 0.454213 0.0705491
0.114505 -0.0620076 0.608027 0.254494 -0.0605858 0.0738627
0.0651054 0.105224 1.21662 0.269301 0.676396 0.0739922
0.118862 -0.104459 0.554116 0.279266 -0.256801 0.076457
0.118428 -0.0953445 0.559533 0.272201 -0.214115 0.0757392
0.108515 0.0243349 0.682364 0.19409 0.34171 0.0676638
0.109941 -0.0291104 0.664396 0.239435 0.0901449 0.0722334
0.0661803 0.0944398 1.20332 0.275706 0.626515 0.0746615
0.119828 0.0776248 0.54373 0.104467 0.606764 0.0590185
0.100418 0.13948 0.78283 0.113914 0.878086 0.0594319
0.110568 -0.12077 0.655937 0.323545 -0.343323 0.0806543
0.0989069 0.0875986 0.800982 0.168029 0.630649 0.0647975
0.106444 0.0493137 0.708017 0.177792 0.457718 0.0659788
0.0658765 0.0998382 1.2071 0.271683 0.651747 0.0742512
0.120132 -0.169885 0.537971 0.336437 -0.565295 0.0822038
0.10411 0.0541741 0.736748 0.181354 0.478135 0.066271
0.114513 -0.00733511 0.608366 0.202989 0.198395 0.0687169
0.0902557 0.110817 0.907515 0.176336 0.73097 0.065391
0.107307 -0.0546069 0.69656 0.272623 -0.0335664 0.0754774
0.0917425 0.0334431 0.888607 0.243999 0.366128 0.0721921
0.111989 0.146994 0.640655 0.0664902 0.926599 0.0550098
0.0656042 0.0849451 1.21033 0.286654 0.580898 0.0757396
0.0979258 0.061886 0.812832 0.195659 0.507759 0.0675312
0.0779998 0.0873787 1.05798 0.241139 0.606265 0.0715308
0.114494 0.0312661 0.608916 0.166713 0.381218 0.0650919
0.0895984 0.0974779 0.915485 0.191187 0.667052 0.0668568
0.0759538 0.111949 1.08333 0.225142 0.720362 0.0698765
0.097211 0.0884408 0.821835 0.17315 0.632745 0.0652627
0.102741 -0.0898371 0.752402 0.321715 -0.205541 0.0802576
0.101016 0.00788419 0.77441 0.235727 0.255415 0.0716191
0.119494 0.0324846 0.547465 0.148131 0.392572 0.0633719
0.0983939 0.105812 0.807437 0.15267 0.716351 0.0632488
0.107805 0.124194 0.691908 0.102549 0.813927 0.0584982
0.105215 -0.0954969 0.72195 0.318418 -0.229589 0.0799958
0.0991961 0.0553807 0.797164 0.197354 0.478363 0.0677353
0.083398 0.00669129 0.99096 0.298283 0.230095 0.0773878
0.0954482 -0.0257398 0.842571 0.286797 0.0899302 0.0765695
0.115217 -0.138176 0.598649 0.323723 -0.420584 0.0807991
0.110942 -0.0264562 0.652113 0.233446 0.103835 0.0716624
0.114682 -0.152699 0.605107 0.339262 -0.489973 0.0823371
0.101237 0.0843745 0.772318 0.162941 0.617978 0.0643528
0.101183 -0.044925 0.771916 0.284862 0.00545737 0.0765329
0.113553 -0.0590264 0.619749 0.255005 -0.0475272 0.0738878
0.102733 -0.0764604 0.752613 0.30915 -0.142189 0.0790019
0.119538 -0.128594 0.545607 0.299633 -0.370372 0.0785103
0.104944 -0.00673584 0.726004 0.235794 0.190549 0.0717331
0.0870562 -0.0157724 0.94581 0.306676 0.127774 0.0783264
0.0959663 0.0361508 0.836708 0.226721 0.38367 0.0705812
0.118924 0.0480479 0.554606 0.135468 0.465655 0.0620911
0.10281 -0.0494225 0.751888 0.283425 -0.0140302 0.0764338
0.0975842 -0.0694026 0.815957 0.320458 -0.114506 0.079991
0.0900696 -0.0170608 0.908757 0.297382 0.125035 0.0774801
0.115446 0.146823 0.598163 0.0545979 0.929648 0.0539161
0.115987 -0.0159796 0.590183 0.20599 0.159093 0.069057
0.108656 -0.0102926 0.680347 0.2262 0.177846 0.0708759
0.100447 0.127176 0.782372 0.125397 0.819836 0.06058
0.105466 0.00149983 0.719653 0.22622 0.230142 0.0707907
0.112447 0.134538 0.63493 0.0766231 0.868105 0.0560347
0.0923521 0.00968788 0.880918 0.264239 0.254286 0.074231
0.114262 -0.0612071 0.611021 0.254587 -0.0570654 0.0738655
0.0971746 -0.0366407 0.82126 0.291041 0.0402223 0.0770407
0.0963448 0.00950998 0.831837 0.250483 0.257901 0.0729658
0.0970516 -0.0076054 0.823009 0.264133 0.177619 0.0743489
0.103055 -0.0475533 0.748894 0.280812 -0.00490315 0.0761793
0.100443 0.126491 0.782414 0.126055 0.81659 0.0606456
0.11495 -0.01173 0.602965 0.205605 0.178064 0.0689902
0.117045 0.002592 0.577328 0.184815 0.248244 0.0669703
0.112228 -0.0481024 0.636128 0.249341 0.00273787 0.0732857
0.0923207 0.0140555 0.88134 0.260236 0.274939 0.0738302
0.104894 0.0327762 0.72694 0.198768 0.377653 0.0680323
0.111501 -0.105028 0.644601 0.305472 -0.267718 0.0788741
0.0944308 0.0328603 0.855556 0.235173 0.366369 0.0713838
0.111876 0.0487356 0.641244 0.159396 0.461044 0.0642893
0.105482 0.0403039 0.719773 0.18963 0.413966 0.0671354
0.0848886 0.0283621 0.972814 0.272682 0.334408 0.0748706
0.118442 0.0976033 0.560933 0.0904913 0.69985 0.0575842
0.108512 -0.0183053 0.682048 0.234245 0.139731 0.0716758
0.105028 0.0885538 0.725745 0.145785 0.642008 0.0627422
0.0940397 0.0252579 0.860302 0.243695 0.329921 0.0722245
0.0856541 0.0595889 0.96366 0.240613 0.483177 0.0716874
0.100465 0.103771 0.781962 0.14737 0.708994 0.0627759
0.0999529 0.0791432 0.788055 0.172343 0.591765 0.065257
0.0689679 0.09636 1.16907 0.264178 0.638723 0.0735859
0.0724097 0.0564902 1.12644 0.289714 0.453712 0.0762313
0.0842578 0.104989 0.981195 0.202738 0.696668 0.067865
0.118507 -0.0896731 0.558603 0.266584 -0.187162 0.0751801
0.0980301 -0.00990301 0.810963 0.262884 0.167828 0.0742508
0.0739595 0.0603521 1.10742 0.280673 0.473735 0.0753704
0.117824 -0.152513 0.566486 0.32813 -0.485582 0.0813107
0.118746 -0.0165326 0.556266 0.196891 0.159554 0.0682233
0.0682417 0.0946473 1.17799 0.268323 0.6298 0.0739801
0.11513 -0.145747 0.599653 0.331153 -0.456541 0.0815391
0.0976541 0.105653 0.816529 0.1554 0.714769 0.0635014
0.0870223 0.0803846 0.947012 0.216263 0.583209 0.0692919
0.0928742 -0.00343712 0.874394 0.274775 0.192699 0.075298
0.0717472 0.0938079 1.13489 0.256889 0.629738 0.0729336
0.119655 -0.0167423 0.545088 0.193917 0.159575 0.0679511
0.0843429 0.102869 0.980131 0.204437 0.686722 0.068037
0.109037 0.0844348 0.676439 0.135686 0.626972 0.0618427
0.102296 0.0936959 0.759375 0.150472 0.663314 0.0631358
0.103202 0.111945 0.748388 0.130132 0.750767 0.0611283
0.084499 0.118975 0.978345 0.188729 0.763184 0.0664719
0.109362 -0.0788682 0.671104 0.2883 -0.146192 0.0770999
0.113524 0.0255566 0.620798 0.175472 0.35309 0.0659406
0.106786 0.0270113 0.703632 0.197597 0.352458 0.067967
0.0889506 0.06543 0.923187 0.223619 0.514526 0.0700795
0.110861 -0.101605 0.652496 0.304481 -0.252218 0.0787576
0.109407 0.122129 0.672191 0.0989042 0.805936 0.0581779
0.106072 0.101904 0.713022 0.129576 0.706411 0.0611512
0.0911205 0.0686314 0.89654 0.213038 0.532112 0.0690817
0.087998 0.00803174 0.934426 0.28098 0.24158 0.0757847
0.106774 -0.0706757 0.70298 0.289611 -0.110276 0.0771601
0.0892926 0.0317655 0.918708 0.254121 0.355447 0.0731365
0.102419 0.097662 0.757895 0.146309 0.682238 0.0627233
0.0728904 0.113586 1.121 0.234282 0.724697 0.070706
0.11888 -0.149453 0.553529 0.321566 -0.469907 0.0806838
0.0838665 0.114987 0.986087 0.194689 0.743589 0.0670501
0.111097 -0.0522409 0.64999 0.257179 -0.0181274 0.074038
0.114574 -0.135696 0.606574 0.32363 -0.409554 0.0807723
0.0735366 0.0454993 1.1125 0.296132 0.402909 0.0769034
0.115164 0.0837624 0.601109 0.114951 0.630629 0.0599385
0.0721556 0.103409 1.12995 0.246426 0.675671 0.0718993
0.0895214 0.0378739 0.915945 0.247572 0.384636 0.0724884
0.0950568 0.0786625 0.848236 0.189868 0.584022 0.0668743
0.0981895 -0.0332356 0.808813 0.284296 0.0574847 0.0763945
0.113253 0.042956 0.62427 0.160035 0.435205 0.0643908
0.0907295 0.101364 0.901613 0.183584 0.68672 0.0661281
0.105423 0.128814 0.721224 0.106505 0.83315 0.0588284
0.11475 0.0396882 0.605838 0.157891 0.421398 0.0642174
0.0884509 0.0864981 0.929501 0.205526 0.613762 0.0682581
